//X,Y,Z,gid,one_d,two_d,three_d,cov_to_i,theoretical_i,multiscale_fused,th_confidence
1899.66418457,21216.76757812,38.42793274,924272.000000,0.507000,0.310000,0.183000,1.676000,2.233000,2.236000,1.065216
1899.96667480,21217.35742188,37.76207733,924272.000000,0.507000,0.310000,0.183000,1.676000,2.233000,2.236000,1.065216
1899.78381348,21217.15234375,37.78599167,924272.000000,0.507000,0.310000,0.183000,1.676000,2.233000,2.236000,1.065216
1899.66284180,21216.76562500,38.31521606,924272.000000,0.507000,0.310000,0.183000,1.676000,2.233000,2.236000,1.065216
1899.66564941,21216.71679688,38.25044250,924272.000000,0.507000,0.310000,0.183000,1.676000,2.233000,2.236000,1.065216
1900.46630859,21216.76171875,37.72782516,924272.000000,0.507000,0.310000,0.183000,1.676000,2.233000,2.236000,1.065216
1899.58825684,21216.56250000,37.79736328,924272.000000,0.507000,0.310000,0.183000,1.676000,2.233000,2.236000,1.065216
1899.58813477,21216.51562500,37.79972839,924272.000000,0.507000,0.310000,0.183000,1.676000,2.233000,2.236000,1.065216
1899.77917480,21216.95898438,37.78637314,924272.000000,0.507000,0.310000,0.183000,1.676000,2.233000,2.236000,1.065216
1899.63256836,21216.81250000,38.43181229,924272.000000,0.507000,0.310000,0.183000,1.676000,2.233000,2.236000,1.065216
1899.64819336,21217.10156250,38.38327789,924272.000000,0.507000,0.310000,0.183000,1.676000,2.233000,2.236000,1.065216
1899.61145020,21217.33789062,38.13028717,924272.000000,0.507000,0.310000,0.183000,1.676000,2.233000,2.236000,1.065216
1899.95166016,21216.77734375,37.76215744,924272.000000,0.507000,0.310000,0.183000,1.676000,2.233000,2.236000,1.065216
1900.40844727,21216.90429688,37.71764755,924272.000000,0.507000,0.310000,0.183000,1.676000,2.233000,2.236000,1.065216
1900.15527344,21216.88671875,37.75264740,924272.000000,0.507000,0.310000,0.183000,1.676000,2.233000,2.236000,1.065216
1899.60168457,21217.24023438,38.06622696,924272.000000,0.507000,0.310000,0.183000,1.676000,2.233000,2.236000,1.065216
1899.78295898,21217.34570312,37.78098679,924272.000000,0.507000,0.310000,0.183000,1.676000,2.233000,2.236000,1.065216
1899.64257812,21217.14843750,38.30767441,924272.000000,0.507000,0.310000,0.183000,1.676000,2.233000,2.236000,1.065216
1899.96533203,21216.82617188,37.76991272,924272.000000,0.507000,0.310000,0.183000,1.676000,2.233000,2.236000,1.065216
1900.28125000,21216.51171875,37.73450470,924272.000000,0.507000,0.310000,0.183000,1.676000,2.233000,2.236000,1.065216
1899.78381348,21216.52734375,37.78435898,924272.000000,0.507000,0.310000,0.183000,1.676000,2.233000,2.236000,1.065216
1899.93640137,21217.25976562,37.76357269,924272.000000,0.507000,0.310000,0.183000,1.676000,2.233000,2.236000,1.065216
1900.19433594,21216.89062500,37.73845673,924272.000000,0.507000,0.310000,0.183000,1.676000,2.233000,2.236000,1.065216
1899.92626953,21217.11328125,37.76445770,924272.000000,0.507000,0.310000,0.183000,1.676000,2.233000,2.236000,1.065216
1899.70654297,21216.57031250,37.79365540,924272.000000,0.507000,0.310000,0.183000,1.676000,2.233000,2.236000,1.065216
1899.62219238,21217.19335938,38.13010025,924272.000000,0.507000,0.310000,0.183000,1.676000,2.233000,2.236000,1.065216
1900.20800781,21216.93945312,37.74757004,924272.000000,0.507000,0.310000,0.183000,1.676000,2.233000,2.236000,1.065216
1899.71044922,21216.76171875,37.79077530,924272.000000,0.507000,0.310000,0.183000,1.676000,2.233000,2.236000,1.065216
1899.53601074,21216.51171875,37.79287720,924272.000000,0.507000,0.310000,0.183000,1.676000,2.233000,2.236000,1.065216
1899.90710449,21216.58203125,37.77999878,924272.000000,0.507000,0.310000,0.183000,1.676000,2.233000,2.236000,1.065216
1899.63183594,21216.81250000,38.38011932,924272.000000,0.507000,0.310000,0.183000,1.676000,2.233000,2.236000,1.065216
1899.90515137,21217.16015625,37.76391983,924272.000000,0.507000,0.310000,0.183000,1.676000,2.233000,2.236000,1.065216
1899.90332031,21217.25585938,37.76596451,924272.000000,0.507000,0.310000,0.183000,1.676000,2.233000,2.236000,1.065216
1899.91064453,21216.77539062,37.77851105,924272.000000,0.507000,0.310000,0.183000,1.676000,2.233000,2.236000,1.065216
1899.66052246,21217.33789062,37.78689575,924272.000000,0.507000,0.310000,0.183000,1.676000,2.233000,2.236000,1.065216
1899.95837402,21217.06640625,37.76533508,924272.000000,0.507000,0.310000,0.183000,1.676000,2.233000,2.236000,1.065216
1899.66296387,21216.76757812,38.46925354,924272.000000,0.507000,0.310000,0.183000,1.676000,2.233000,2.236000,1.065216
1899.59545898,21217.33593750,38.00673294,924272.000000,0.507000,0.310000,0.183000,1.676000,2.233000,2.236000,1.065216
1899.66992188,21216.61718750,38.01159668,924272.000000,0.507000,0.310000,0.183000,1.676000,2.233000,2.236000,1.065216
1899.62646484,21217.33593750,37.87203217,924272.000000,0.507000,0.310000,0.183000,1.676000,2.233000,2.236000,1.065216
1900.33435059,21217.18750000,37.73524094,924272.000000,0.507000,0.310000,0.183000,1.676000,2.233000,2.236000,1.065216
1899.90759277,21216.87109375,37.77729797,924272.000000,0.507000,0.310000,0.183000,1.676000,2.233000,2.236000,1.065216
1899.67407227,21216.66210938,37.79278946,924272.000000,0.507000,0.310000,0.183000,1.676000,2.233000,2.236000,1.065216
1900.33935547,21216.75390625,37.73914719,924272.000000,0.507000,0.310000,0.183000,1.676000,2.233000,2.236000,1.065216
1899.83178711,21217.01171875,37.78421783,924272.000000,0.507000,0.310000,0.183000,1.676000,2.233000,2.236000,1.065216
1899.66027832,21216.85742188,37.97379684,924272.000000,0.507000,0.310000,0.183000,1.676000,2.233000,2.236000,1.065216
1899.91174316,21216.63085938,37.78106308,924272.000000,0.507000,0.310000,0.183000,1.676000,2.233000,2.236000,1.065216
1900.40478516,21216.56835938,37.73446655,924272.000000,0.507000,0.310000,0.183000,1.676000,2.233000,2.236000,1.065216
1900.15270996,21216.83789062,37.75402451,924272.000000,0.507000,0.310000,0.183000,1.676000,2.233000,2.236000,1.065216
1899.65771484,21216.85546875,37.79279327,924272.000000,0.507000,0.310000,0.183000,1.676000,2.233000,2.236000,1.065216
1899.66308594,21216.61523438,37.83948135,924272.000000,0.507000,0.310000,0.183000,1.676000,2.233000,2.236000,1.065216
1899.62719727,21216.91015625,38.43745804,924272.000000,0.507000,0.310000,0.183000,1.676000,2.233000,2.236000,1.065216
1899.71350098,21217.19531250,37.78838348,924272.000000,0.507000,0.310000,0.183000,1.676000,2.233000,2.236000,1.065216
1899.95971680,21217.25976562,37.76311111,924272.000000,0.507000,0.310000,0.183000,1.676000,2.233000,2.236000,1.065216
1900.02172852,21216.87890625,37.76379013,924272.000000,0.507000,0.310000,0.183000,1.676000,2.233000,2.236000,1.065216
1899.66491699,21216.76757812,38.49539185,924272.000000,0.507000,0.310000,0.183000,1.676000,2.233000,2.236000,1.065216
1899.64282227,21216.70898438,37.81597137,924272.000000,0.507000,0.310000,0.183000,1.676000,2.233000,2.236000,1.065216
1900.19360352,21216.84179688,37.74181366,924272.000000,0.507000,0.310000,0.183000,1.676000,2.233000,2.236000,1.065216
1899.62377930,21216.90429688,38.05944824,924272.000000,0.507000,0.310000,0.183000,1.676000,2.233000,2.236000,1.065216
1900.48339844,21216.90820312,37.72558212,924272.000000,0.507000,0.310000,0.183000,1.676000,2.233000,2.236000,1.065216
1899.84033203,21216.72265625,37.78567886,924272.000000,0.507000,0.310000,0.183000,1.676000,2.233000,2.236000,1.065216
1900.47253418,21216.52539062,37.72509766,924272.000000,0.507000,0.310000,0.183000,1.676000,2.233000,2.236000,1.065216
1900.08496094,21217.26757812,37.75284576,924272.000000,0.507000,0.310000,0.183000,1.676000,2.233000,2.236000,1.065216
1900.03405762,21217.26562500,37.75781250,924272.000000,0.507000,0.310000,0.183000,1.676000,2.233000,2.236000,1.065216
1899.66369629,21216.76757812,38.43624878,924272.000000,0.507000,0.310000,0.183000,1.676000,2.233000,2.236000,1.065216
1899.61755371,21217.33789062,38.17968750,924272.000000,0.507000,0.310000,0.183000,1.676000,2.233000,2.236000,1.065216
1899.66186523,21216.71484375,38.13004684,924272.000000,0.507000,0.310000,0.183000,1.676000,2.233000,2.236000,1.065216
1900.08728027,21216.59375000,37.76264954,924272.000000,0.507000,0.310000,0.183000,1.676000,2.233000,2.236000,1.065216
1900.06982422,21216.78515625,37.76359558,924272.000000,0.507000,0.310000,0.183000,1.676000,2.233000,2.236000,1.065216
1900.02978516,21216.83007812,37.76496506,924272.000000,0.507000,0.310000,0.183000,1.676000,2.233000,2.236000,1.065216
1899.65515137,21216.85546875,37.87168121,924272.000000,0.507000,0.310000,0.183000,1.676000,2.233000,2.236000,1.065216
1900.00000000,21217.02148438,37.76374435,924272.000000,0.507000,0.310000,0.183000,1.676000,2.233000,2.236000,1.065216
1899.66784668,21216.66601562,38.12899780,924272.000000,0.507000,0.310000,0.183000,1.676000,2.233000,2.236000,1.065216
1900.40856934,21217.00000000,37.73097229,924272.000000,0.507000,0.310000,0.183000,1.676000,2.233000,2.236000,1.065216
1899.67529297,21216.62109375,38.18337631,924272.000000,0.507000,0.310000,0.183000,1.676000,2.233000,2.236000,1.065216
1899.66345215,21216.71484375,38.06565475,924272.000000,0.507000,0.310000,0.183000,1.676000,2.233000,2.236000,1.065216
1900.03027344,21217.31250000,37.75104141,924272.000000,0.507000,0.310000,0.183000,1.676000,2.233000,2.236000,1.065216
1900.27746582,21216.65429688,37.74559784,924272.000000,0.507000,0.310000,0.183000,1.676000,2.233000,2.236000,1.065216
1899.90844727,21216.72656250,37.78067017,924272.000000,0.507000,0.310000,0.183000,1.676000,2.233000,2.236000,1.065216
1899.67675781,21216.62304688,38.37857437,924272.000000,0.507000,0.310000,0.183000,1.676000,2.233000,2.236000,1.065216
1899.98059082,21217.06835938,37.76394272,924272.000000,0.507000,0.310000,0.183000,1.676000,2.233000,2.236000,1.065216
1900.01403809,21216.73242188,37.76918793,924272.000000,0.507000,0.310000,0.183000,1.676000,2.233000,2.236000,1.065216
1900.00646973,21217.07031250,37.75614166,924272.000000,0.507000,0.310000,0.183000,1.676000,2.233000,2.236000,1.065216
1900.08642578,21217.12304688,37.75314713,924272.000000,0.507000,0.310000,0.183000,1.676000,2.233000,2.236000,1.065216
1899.96118164,21217.30859375,37.76124573,924272.000000,0.507000,0.310000,0.183000,1.676000,2.233000,2.236000,1.065216
1900.40856934,21217.19335938,37.73073196,924272.000000,0.507000,0.310000,0.183000,1.676000,2.233000,2.236000,1.065216
1900.21191406,21216.65039062,37.74352646,924272.000000,0.507000,0.310000,0.183000,1.676000,2.233000,2.236000,1.065216
1899.63232422,21217.24218750,38.18772507,924272.000000,0.507000,0.310000,0.183000,1.676000,2.233000,2.236000,1.065216
1900.32861328,21216.99414062,37.73015976,924272.000000,0.507000,0.310000,0.183000,1.676000,2.233000,2.236000,1.065216
1899.66076660,21216.76367188,38.13414764,924272.000000,0.507000,0.310000,0.183000,1.676000,2.233000,2.236000,1.065216
1899.63366699,21217.34179688,38.38293457,924272.000000,0.507000,0.310000,0.183000,1.676000,2.233000,2.236000,1.065216
1900.46813965,21216.57226562,37.72913361,924272.000000,0.507000,0.310000,0.183000,1.676000,2.233000,2.236000,1.065216
1900.20739746,21216.60156250,37.75147247,924272.000000,0.507000,0.310000,0.183000,1.676000,2.233000,2.236000,1.065216
1899.64184570,21216.95898438,38.42437744,924272.000000,0.507000,0.310000,0.183000,1.676000,2.233000,2.236000,1.065216
1900.28503418,21217.33007812,37.73806000,924272.000000,0.507000,0.310000,0.183000,1.676000,2.233000,2.236000,1.065216
1899.66662598,21216.71875000,38.38211441,924272.000000,0.507000,0.310000,0.183000,1.676000,2.233000,2.236000,1.065216
1900.28112793,21216.89648438,37.74118423,924272.000000,0.507000,0.310000,0.183000,1.676000,2.233000,2.236000,1.065216
1899.63781738,21217.19335938,37.94116592,924272.000000,0.507000,0.310000,0.183000,1.676000,2.233000,2.236000,1.065216
1899.71325684,21216.90820312,37.78990555,924272.000000,0.507000,0.310000,0.183000,1.676000,2.233000,2.236000,1.065216
1900.40283203,21216.51953125,37.72374725,924272.000000,0.507000,0.310000,0.183000,1.676000,2.233000,2.236000,1.065216
1899.83337402,21216.53125000,37.78331757,924272.000000,0.507000,0.310000,0.183000,1.676000,2.233000,2.236000,1.065216
1900.08386230,21217.22070312,37.75538635,924272.000000,0.507000,0.310000,0.183000,1.676000,2.233000,2.236000,1.065216
1900.01989746,21216.97460938,37.76390457,924272.000000,0.507000,0.310000,0.183000,1.676000,2.233000,2.236000,1.065216
1899.66113281,21216.75781250,37.79418182,924272.000000,0.507000,0.310000,0.183000,1.676000,2.233000,2.236000,1.065216
1899.64013672,21217.24609375,38.43641281,924272.000000,0.507000,0.310000,0.183000,1.676000,2.233000,2.236000,1.065216
1900.46984863,21216.61914062,37.72968674,924272.000000,0.507000,0.310000,0.183000,1.676000,2.233000,2.236000,1.065216
1899.90698242,21216.82226562,37.78131485,924272.000000,0.507000,0.310000,0.183000,1.676000,2.233000,2.236000,1.065216
1900.10644531,21216.69140625,37.76420593,924272.000000,0.507000,0.310000,0.183000,1.676000,2.233000,2.236000,1.065216
1900.21337891,21217.03515625,37.74623489,924272.000000,0.507000,0.310000,0.183000,1.676000,2.233000,2.236000,1.065216
1899.66284180,21216.71679688,38.25746918,924272.000000,0.507000,0.310000,0.183000,1.676000,2.233000,2.236000,1.065216
1899.60168457,21217.24023438,38.00932693,924272.000000,0.507000,0.310000,0.183000,1.676000,2.233000,2.236000,1.065216
1899.64257812,21217.19726562,38.43305588,924272.000000,0.507000,0.310000,0.183000,1.676000,2.233000,2.236000,1.065216
1900.16101074,21217.36914062,37.74589920,924272.000000,0.507000,0.310000,0.183000,1.676000,2.233000,2.236000,1.065216
1900.33325195,21217.13867188,37.73665237,924272.000000,0.507000,0.310000,0.183000,1.676000,2.233000,2.236000,1.065216
1899.90820312,21217.20898438,37.76351929,924272.000000,0.507000,0.310000,0.183000,1.676000,2.233000,2.236000,1.065216
1899.94396973,21216.77734375,37.76586533,924272.000000,0.507000,0.310000,0.183000,1.676000,2.233000,2.236000,1.065216
1900.08654785,21217.07617188,37.75648117,924272.000000,0.507000,0.310000,0.183000,1.676000,2.233000,2.236000,1.065216
1899.93261719,21217.21093750,37.76365662,924272.000000,0.507000,0.310000,0.183000,1.676000,2.233000,2.236000,1.065216
1900.33142090,21217.09179688,37.73770905,924272.000000,0.507000,0.310000,0.183000,1.676000,2.233000,2.236000,1.065216
1899.95727539,21216.87500000,37.76880264,924272.000000,0.507000,0.310000,0.183000,1.676000,2.233000,2.236000,1.065216
1900.06311035,21216.68750000,37.75545883,924272.000000,0.507000,0.310000,0.183000,1.676000,2.233000,2.236000,1.065216
1900.29382324,21216.60742188,37.74341583,924272.000000,0.507000,0.310000,0.183000,1.676000,2.233000,2.236000,1.065216
1899.90905762,21217.01562500,37.76713181,924272.000000,0.507000,0.310000,0.183000,1.676000,2.233000,2.236000,1.065216
1899.64294434,21217.09960938,38.25819016,924272.000000,0.507000,0.310000,0.183000,1.676000,2.233000,2.236000,1.065216
1899.66308594,21216.76562500,38.38457489,924272.000000,0.507000,0.310000,0.183000,1.676000,2.233000,2.236000,1.065216
1899.58374023,21217.23632812,37.79823685,924272.000000,0.507000,0.310000,0.183000,1.676000,2.233000,2.236000,1.065216
1900.40661621,21217.09570312,37.71334457,924272.000000,0.507000,0.310000,0.183000,1.676000,2.233000,2.236000,1.065216
1899.61816406,21217.00000000,38.05753326,924272.000000,0.507000,0.310000,0.183000,1.676000,2.233000,2.236000,1.065216
1899.91235352,21217.16015625,37.75969696,924272.000000,0.507000,0.310000,0.183000,1.676000,2.233000,2.236000,1.065216
1899.65026855,21217.10156250,38.43530655,924272.000000,0.507000,0.310000,0.183000,1.676000,2.233000,2.236000,1.065216
1900.38415527,21217.38476562,37.72433472,924272.000000,0.507000,0.310000,0.183000,1.676000,2.233000,2.236000,1.065216
1899.62304688,21216.90625000,38.11519241,924272.000000,0.507000,0.310000,0.183000,1.676000,2.233000,2.236000,1.065216
1899.66442871,21217.04882812,37.79164124,924272.000000,0.507000,0.310000,0.183000,1.676000,2.233000,2.236000,1.065216
1900.03759766,21217.31445312,37.74730301,924272.000000,0.507000,0.310000,0.183000,1.676000,2.233000,2.236000,1.065216
1899.64831543,21217.05273438,38.24733353,924272.000000,0.507000,0.310000,0.183000,1.676000,2.233000,2.236000,1.065216
1899.66601562,21216.71679688,38.26824188,924272.000000,0.507000,0.310000,0.183000,1.676000,2.233000,2.236000,1.065216
1899.62780762,21217.28906250,37.91698837,924272.000000,0.507000,0.310000,0.183000,1.676000,2.233000,2.236000,1.065216
1899.66955566,21216.61914062,38.14301682,924272.000000,0.507000,0.310000,0.183000,1.676000,2.233000,2.236000,1.065216
1900.08105469,21217.36523438,37.74257660,924272.000000,0.507000,0.310000,0.183000,1.676000,2.233000,2.236000,1.065216
1899.64831543,21217.10351562,38.45099258,924272.000000,0.507000,0.310000,0.183000,1.676000,2.233000,2.236000,1.065216
1899.63659668,21216.95507812,38.13839340,924272.000000,0.507000,0.310000,0.183000,1.676000,2.233000,2.236000,1.065216
1900.41174316,21216.71093750,37.72494888,924272.000000,0.507000,0.310000,0.183000,1.676000,2.233000,2.236000,1.065216
1900.31860352,21217.18750000,37.72951889,924272.000000,0.507000,0.310000,0.183000,1.676000,2.233000,2.236000,1.065216
1900.45104980,21216.57031250,37.73170471,924272.000000,0.507000,0.310000,0.183000,1.676000,2.233000,2.236000,1.065216
1899.82348633,21216.52929688,37.78530884,924272.000000,0.507000,0.310000,0.183000,1.676000,2.233000,2.236000,1.065216
1900.09338379,21216.73828125,37.75862503,924272.000000,0.507000,0.310000,0.183000,1.676000,2.233000,2.236000,1.065216
1900.41516113,21216.80664062,37.73169708,924272.000000,0.507000,0.310000,0.183000,1.676000,2.233000,2.236000,1.065216
1899.79528809,21216.76757812,37.78619003,924272.000000,0.507000,0.310000,0.183000,1.676000,2.233000,2.236000,1.065216
1899.91943359,21216.58398438,37.77999496,924272.000000,0.507000,0.310000,0.183000,1.676000,2.233000,2.236000,1.065216
1900.26513672,21216.75000000,37.74686050,924272.000000,0.507000,0.310000,0.183000,1.676000,2.233000,2.236000,1.065216
1899.60864258,21217.23828125,37.79645157,924272.000000,0.507000,0.310000,0.183000,1.676000,2.233000,2.236000,1.065216
1900.41784668,21217.09765625,37.71533966,924272.000000,0.507000,0.310000,0.183000,1.676000,2.233000,2.236000,1.065216
1900.14233398,21216.83789062,37.75466537,924272.000000,0.507000,0.310000,0.183000,1.676000,2.233000,2.236000,1.065216
1900.13574219,21216.88671875,37.75472641,924272.000000,0.507000,0.310000,0.183000,1.676000,2.233000,2.236000,1.065216
1899.62646484,21216.80859375,38.05110168,924272.000000,0.507000,0.310000,0.183000,1.676000,2.233000,2.236000,1.065216
1899.66735840,21216.66796875,38.13765717,924272.000000,0.507000,0.310000,0.183000,1.676000,2.233000,2.236000,1.065216
1900.10241699,21216.98046875,37.74679184,924272.000000,0.507000,0.310000,0.183000,1.676000,2.233000,2.236000,1.065216
1899.66455078,21216.71679688,38.32914734,924272.000000,0.507000,0.310000,0.183000,1.676000,2.233000,2.236000,1.065216
1900.39404297,21217.33593750,37.72774506,924272.000000,0.507000,0.310000,0.183000,1.676000,2.233000,2.236000,1.065216
1899.76770020,21216.62109375,37.78713989,924272.000000,0.507000,0.310000,0.183000,1.676000,2.233000,2.236000,1.065216
1900.41577148,21217.04882812,37.72586441,924272.000000,0.507000,0.310000,0.183000,1.676000,2.233000,2.236000,1.065216
1899.67138672,21216.67187500,38.44012070,924272.000000,0.507000,0.310000,0.183000,1.676000,2.233000,2.236000,1.065216
1900.48974609,21217.05273438,37.72298050,924272.000000,0.507000,0.310000,0.183000,1.676000,2.233000,2.236000,1.065216
1899.67236328,21216.66992188,38.38973999,924272.000000,0.507000,0.310000,0.183000,1.676000,2.233000,2.236000,1.065216
1899.95410156,21217.35742188,37.76144791,924272.000000,0.507000,0.310000,0.183000,1.676000,2.233000,2.236000,1.065216
1899.76660156,21217.24804688,37.78577423,924272.000000,0.507000,0.310000,0.183000,1.676000,2.233000,2.236000,1.065216
1899.60046387,21216.99609375,37.79835892,924272.000000,0.507000,0.310000,0.183000,1.676000,2.233000,2.236000,1.065216
1899.63183594,21216.81250000,38.44003677,924272.000000,0.507000,0.310000,0.183000,1.676000,2.233000,2.236000,1.065216
1899.63549805,21216.95507812,38.11930466,924272.000000,0.507000,0.310000,0.183000,1.676000,2.233000,2.236000,1.065216
1900.28820801,21217.18554688,37.72960281,924272.000000,0.507000,0.310000,0.183000,1.676000,2.233000,2.236000,1.065216
1899.67150879,21216.67187500,38.43164825,924272.000000,0.507000,0.310000,0.183000,1.676000,2.233000,2.236000,1.065216
1899.76428223,21216.81445312,37.78756714,924272.000000,0.507000,0.310000,0.183000,1.676000,2.233000,2.236000,1.065216
1899.79211426,21217.10546875,37.78572845,924272.000000,0.507000,0.310000,0.183000,1.676000,2.233000,2.236000,1.065216
1900.29626465,21216.65429688,37.74343491,924272.000000,0.507000,0.310000,0.183000,1.676000,2.233000,2.236000,1.065216
1899.64624023,21217.05273438,38.20147324,924272.000000,0.507000,0.310000,0.183000,1.676000,2.233000,2.236000,1.065216
1899.64672852,21216.75781250,37.79376221,924272.000000,0.507000,0.310000,0.183000,1.676000,2.233000,2.236000,1.065216
1899.65991211,21216.76171875,38.07781982,924272.000000,0.507000,0.310000,0.183000,1.676000,2.233000,2.236000,1.065216
1899.59802246,21217.28710938,38.07907486,924272.000000,0.507000,0.310000,0.183000,1.676000,2.233000,2.236000,1.065216
1899.64306641,21217.14843750,38.26377106,924272.000000,0.507000,0.310000,0.183000,1.676000,2.233000,2.236000,1.065216
1900.22827148,21216.93945312,37.74645996,924272.000000,0.507000,0.310000,0.183000,1.676000,2.233000,2.236000,1.065216
1899.62927246,21216.86132812,38.36565018,924272.000000,0.507000,0.310000,0.183000,1.676000,2.233000,2.236000,1.065216
1899.91894531,21216.82421875,37.77080917,924272.000000,0.507000,0.310000,0.183000,1.676000,2.233000,2.236000,1.065216
1899.73071289,21216.71484375,37.79047775,924272.000000,0.507000,0.310000,0.183000,1.676000,2.233000,2.236000,1.065216
1900.16845703,21217.12890625,37.74778748,924272.000000,0.507000,0.310000,0.183000,1.676000,2.233000,2.236000,1.065216
1899.95507812,21216.82617188,37.77089691,924272.000000,0.507000,0.310000,0.183000,1.676000,2.233000,2.236000,1.065216
1899.85620117,21217.30273438,37.77378845,924272.000000,0.507000,0.310000,0.183000,1.676000,2.233000,2.236000,1.065216
1899.62500000,21217.14648438,38.14436722,924272.000000,0.507000,0.310000,0.183000,1.676000,2.233000,2.236000,1.065216
1900.28698730,21216.65429688,37.74468613,924272.000000,0.507000,0.310000,0.183000,1.676000,2.233000,2.236000,1.065216
1900.22399902,21217.27734375,37.74206161,924272.000000,0.507000,0.310000,0.183000,1.676000,2.233000,2.236000,1.065216
1899.70678711,21216.61718750,37.79079056,924272.000000,0.507000,0.310000,0.183000,1.676000,2.233000,2.236000,1.065216
1899.95324707,21216.68164062,37.77177048,924272.000000,0.507000,0.310000,0.183000,1.676000,2.233000,2.236000,1.065216
1900.41198730,21217.33789062,37.72607040,924272.000000,0.507000,0.310000,0.183000,1.676000,2.233000,2.236000,1.065216
1899.64099121,21216.56640625,37.79520798,924272.000000,0.507000,0.310000,0.183000,1.676000,2.233000,2.236000,1.065216
1899.66882324,21216.66796875,38.20267487,924272.000000,0.507000,0.310000,0.183000,1.676000,2.233000,2.236000,1.065216
1899.70117188,21216.90625000,37.79050827,924272.000000,0.507000,0.310000,0.183000,1.676000,2.233000,2.236000,1.065216
1900.22937012,21217.22851562,37.73991013,924272.000000,0.507000,0.310000,0.183000,1.676000,2.233000,2.236000,1.065216
1899.63354492,21217.00195312,38.11436081,924272.000000,0.507000,0.310000,0.183000,1.676000,2.233000,2.236000,1.065216
1899.97302246,21217.30859375,37.76127625,924272.000000,0.507000,0.310000,0.183000,1.676000,2.233000,2.236000,1.065216
1899.73071289,21216.57226562,37.79159927,924272.000000,0.507000,0.310000,0.183000,1.676000,2.233000,2.236000,1.065216
1900.10461426,21217.02929688,37.75615311,924272.000000,0.507000,0.310000,0.183000,1.676000,2.233000,2.236000,1.065216
1899.63708496,21217.00390625,38.19901276,924272.000000,0.507000,0.310000,0.183000,1.676000,2.233000,2.236000,1.065216
1899.60925293,21217.09570312,38.05333710,924272.000000,0.507000,0.310000,0.183000,1.676000,2.233000,2.236000,1.065216
1900.14050293,21216.64453125,37.75792694,924272.000000,0.507000,0.310000,0.183000,1.676000,2.233000,2.236000,1.065216
1899.63513184,21217.00390625,38.24290848,924272.000000,0.507000,0.310000,0.183000,1.676000,2.233000,2.236000,1.065216
1899.60461426,21217.19140625,38.05311966,924272.000000,0.507000,0.310000,0.183000,1.676000,2.233000,2.236000,1.065216
1899.64501953,21217.14843750,38.32636261,924272.000000,0.507000,0.310000,0.183000,1.676000,2.233000,2.236000,1.065216
1899.63549805,21217.34179688,38.36694717,924272.000000,0.507000,0.310000,0.183000,1.676000,2.233000,2.236000,1.065216
1900.07092285,21216.83398438,37.76082611,924272.000000,0.507000,0.310000,0.183000,1.676000,2.233000,2.236000,1.065216
1900.48620605,21217.29492188,37.71656418,924272.000000,0.507000,0.310000,0.183000,1.676000,2.233000,2.236000,1.065216
1900.39245605,21217.24023438,37.73170853,924272.000000,0.507000,0.310000,0.183000,1.676000,2.233000,2.236000,1.065216
1899.96496582,21216.68164062,37.77143860,924272.000000,0.507000,0.310000,0.183000,1.676000,2.233000,2.236000,1.065216
1899.64855957,21217.00195312,37.96298218,924272.000000,0.507000,0.310000,0.183000,1.676000,2.233000,2.236000,1.065216
1899.63464355,21217.00195312,38.14272690,924272.000000,0.507000,0.310000,0.183000,1.676000,2.233000,2.236000,1.065216
1899.64172363,21217.04882812,37.97412491,924272.000000,0.507000,0.310000,0.183000,1.676000,2.233000,2.236000,1.065216
1900.22729492,21217.13281250,37.74320221,924272.000000,0.507000,0.310000,0.183000,1.676000,2.233000,2.236000,1.065216
1899.65209961,21217.10351562,38.48648453,924272.000000,0.507000,0.310000,0.183000,1.676000,2.233000,2.236000,1.065216
1899.95007324,21216.63281250,37.77288055,924272.000000,0.507000,0.310000,0.183000,1.676000,2.233000,2.236000,1.065216
1899.65234375,21217.05468750,38.44853210,924272.000000,0.507000,0.310000,0.183000,1.676000,2.233000,2.236000,1.065216
1899.62011719,21217.19335938,38.11940384,924272.000000,0.507000,0.310000,0.183000,1.676000,2.233000,2.236000,1.065216
1900.48645020,21216.57226562,37.72831726,924272.000000,0.507000,0.310000,0.183000,1.676000,2.233000,2.236000,1.065216
1899.91613770,21216.67773438,37.78119278,924272.000000,0.507000,0.310000,0.183000,1.676000,2.233000,2.236000,1.065216
1899.95422363,21216.97070312,37.76824570,924272.000000,0.507000,0.310000,0.183000,1.676000,2.233000,2.236000,1.065216
1899.96960449,21216.77929688,37.76718521,924272.000000,0.507000,0.310000,0.183000,1.676000,2.233000,2.236000,1.065216
1899.73083496,21217.24609375,37.78803253,924272.000000,0.507000,0.310000,0.183000,1.676000,2.233000,2.236000,1.065216
1899.62890625,21216.80859375,38.08137131,924272.000000,0.507000,0.310000,0.183000,1.676000,2.233000,2.236000,1.065216
1900.09887695,21217.12500000,37.75421524,924272.000000,0.507000,0.310000,0.183000,1.676000,2.233000,2.236000,1.065216
1899.73156738,21217.10156250,37.78883743,924272.000000,0.507000,0.310000,0.183000,1.676000,2.233000,2.236000,1.065216
1899.91809082,21216.96875000,37.76789093,924272.000000,0.507000,0.310000,0.183000,1.676000,2.233000,2.236000,1.065216
1899.78857422,21216.91210938,37.78752518,924272.000000,0.507000,0.310000,0.183000,1.676000,2.233000,2.236000,1.065216
1899.64050293,21217.04882812,37.93454742,924272.000000,0.507000,0.310000,0.183000,1.676000,2.233000,2.236000,1.065216
1899.62255859,21216.95312500,38.05421448,924272.000000,0.507000,0.310000,0.183000,1.676000,2.233000,2.236000,1.065216
1900.42431641,21216.61523438,37.73260498,924272.000000,0.507000,0.310000,0.183000,1.676000,2.233000,2.236000,1.065216
1899.89611816,21217.16015625,37.76657486,924272.000000,0.507000,0.310000,0.183000,1.676000,2.233000,2.236000,1.065216
1900.20483398,21217.22851562,37.74650574,924272.000000,0.507000,0.310000,0.183000,1.676000,2.233000,2.236000,1.065216
1899.66491699,21216.56640625,37.79278946,924272.000000,0.507000,0.310000,0.183000,1.676000,2.233000,2.236000,1.065216
1899.63110352,21216.80859375,38.11995316,924272.000000,0.507000,0.310000,0.183000,1.676000,2.233000,2.236000,1.065216
1899.64050293,21217.00781250,38.48748779,924272.000000,0.507000,0.310000,0.183000,1.676000,2.233000,2.236000,1.065216
1900.10302734,21216.83593750,37.75935364,924272.000000,0.507000,0.310000,0.183000,1.676000,2.233000,2.236000,1.065216
1900.29345703,21216.56054688,37.74456406,924272.000000,0.507000,0.310000,0.183000,1.676000,2.233000,2.236000,1.065216
1899.97778320,21217.21289062,37.76190186,924272.000000,0.507000,0.310000,0.183000,1.676000,2.233000,2.236000,1.065216
1900.15747070,21216.93554688,37.74060059,924272.000000,0.507000,0.310000,0.183000,1.676000,2.233000,2.236000,1.065216
1900.45336914,21217.00390625,37.72711563,924272.000000,0.507000,0.310000,0.183000,1.676000,2.233000,2.236000,1.065216
1899.61767578,21217.28906250,38.13801575,924272.000000,0.507000,0.310000,0.183000,1.676000,2.233000,2.236000,1.065216
1899.63964844,21216.95703125,38.26704025,924272.000000,0.507000,0.310000,0.183000,1.676000,2.233000,2.236000,1.065216
1899.66943359,21216.66601562,38.12062454,924272.000000,0.507000,0.310000,0.183000,1.676000,2.233000,2.236000,1.065216
1899.62219238,21217.19335938,38.13935471,924272.000000,0.507000,0.310000,0.183000,1.676000,2.233000,2.236000,1.065216
1900.21899414,21216.69726562,37.74672318,924272.000000,0.507000,0.310000,0.183000,1.676000,2.233000,2.236000,1.065216
1899.64343262,21217.19726562,38.39109802,924272.000000,0.507000,0.310000,0.183000,1.676000,2.233000,2.236000,1.065216
1900.34790039,21217.28515625,37.73362732,924272.000000,0.507000,0.310000,0.183000,1.676000,2.233000,2.236000,1.065216
1899.65258789,21217.05468750,38.43190384,924272.000000,0.507000,0.310000,0.183000,1.676000,2.233000,2.236000,1.065216
1900.33105469,21217.28515625,37.73659897,924272.000000,0.507000,0.310000,0.183000,1.676000,2.233000,2.236000,1.065216
1900.41552734,21216.95312500,37.73137665,924272.000000,0.507000,0.310000,0.183000,1.676000,2.233000,2.236000,1.065216
1900.16870117,21217.32226562,37.74649048,924272.000000,0.507000,0.310000,0.183000,1.676000,2.233000,2.236000,1.065216
1899.64611816,21217.10156250,38.36468506,924272.000000,0.507000,0.310000,0.183000,1.676000,2.233000,2.236000,1.065216
1900.38000488,21217.28710938,37.72599030,924272.000000,0.507000,0.310000,0.183000,1.676000,2.233000,2.236000,1.065216
1900.01940918,21217.07031250,37.74740601,924272.000000,0.507000,0.310000,0.183000,1.676000,2.233000,2.236000,1.065216
1899.84570312,21216.53125000,37.78300476,924272.000000,0.507000,0.310000,0.183000,1.676000,2.233000,2.236000,1.065216
1899.97583008,21217.35742188,37.76022720,924272.000000,0.507000,0.310000,0.183000,1.676000,2.233000,2.236000,1.065216
1899.66259766,21216.76171875,38.01323318,924272.000000,0.507000,0.310000,0.183000,1.676000,2.233000,2.236000,1.065216
1900.28930664,21216.94335938,37.72502899,924272.000000,0.507000,0.310000,0.183000,1.676000,2.233000,2.236000,1.065216
1899.63928223,21217.24609375,38.42742538,924272.000000,0.507000,0.310000,0.183000,1.676000,2.233000,2.236000,1.065216
1899.67114258,21216.62109375,38.20790482,924272.000000,0.507000,0.310000,0.183000,1.676000,2.233000,2.236000,1.065216
1899.65979004,21216.76171875,37.99220276,924272.000000,0.507000,0.310000,0.183000,1.676000,2.233000,2.236000,1.065216
1899.84851074,21217.25390625,37.78098679,924272.000000,0.507000,0.310000,0.183000,1.676000,2.233000,2.236000,1.065216
1900.39123535,21217.19140625,37.73286057,924272.000000,0.507000,0.310000,0.183000,1.676000,2.233000,2.236000,1.065216
1900.45092773,21217.19531250,37.72450638,924272.000000,0.507000,0.310000,0.183000,1.676000,2.233000,2.236000,1.065216
1900.03845215,21216.83203125,37.76228333,924272.000000,0.507000,0.310000,0.183000,1.676000,2.233000,2.236000,1.065216
1900.38903809,21216.90234375,37.72806549,924272.000000,0.507000,0.310000,0.183000,1.676000,2.233000,2.236000,1.065216
1899.64868164,21217.15039062,38.48966980,924272.000000,0.507000,0.310000,0.183000,1.676000,2.233000,2.236000,1.065216
1900.05493164,21216.59179688,37.76429749,924272.000000,0.507000,0.310000,0.183000,1.676000,2.233000,2.236000,1.065216
1899.82885742,21216.86718750,37.78377914,924272.000000,0.507000,0.310000,0.183000,1.676000,2.233000,2.236000,1.065216
1900.20446777,21216.64843750,37.74634933,924272.000000,0.507000,0.310000,0.183000,1.676000,2.233000,2.236000,1.065216
1899.67126465,21216.61914062,38.05068207,924272.000000,0.507000,0.310000,0.183000,1.676000,2.233000,2.236000,1.065216
1899.59558105,21217.33593750,38.01644516,924272.000000,0.507000,0.310000,0.183000,1.676000,2.233000,2.236000,1.065216
1900.38684082,21216.95117188,37.73209000,924272.000000,0.507000,0.310000,0.183000,1.676000,2.233000,2.236000,1.065216
1899.66003418,21216.76171875,38.11536407,924272.000000,0.507000,0.310000,0.183000,1.676000,2.233000,2.236000,1.065216
1899.88598633,21216.87109375,37.77988815,924272.000000,0.507000,0.310000,0.183000,1.676000,2.233000,2.236000,1.065216
1899.60803223,21217.28515625,37.79201889,924272.000000,0.507000,0.310000,0.183000,1.676000,2.233000,2.236000,1.065216
1899.67175293,21216.61914062,38.04144669,924272.000000,0.507000,0.310000,0.183000,1.676000,2.233000,2.236000,1.065216
1899.79321289,21216.86328125,37.78561020,924272.000000,0.507000,0.310000,0.183000,1.676000,2.233000,2.236000,1.065216
1900.15405273,21216.74218750,37.74298477,924272.000000,0.507000,0.310000,0.183000,1.676000,2.233000,2.236000,1.065216
1899.68249512,21216.61523438,37.79260254,924272.000000,0.507000,0.310000,0.183000,1.676000,2.233000,2.236000,1.065216
1899.66418457,21216.71679688,38.33777618,924272.000000,0.507000,0.310000,0.183000,1.676000,2.233000,2.236000,1.065216
1900.29040527,21217.23437500,37.73910141,924272.000000,0.507000,0.310000,0.183000,1.676000,2.233000,2.236000,1.065216
1899.66967773,21216.61718750,37.93387985,924272.000000,0.507000,0.310000,0.183000,1.676000,2.233000,2.236000,1.065216
1899.60778809,21217.14453125,38.07754135,924272.000000,0.507000,0.310000,0.183000,1.676000,2.233000,2.236000,1.065216
1900.14331055,21217.17578125,37.75214386,924272.000000,0.507000,0.310000,0.183000,1.676000,2.233000,2.236000,1.065216
1899.66052246,21216.85742188,37.95467377,924272.000000,0.507000,0.310000,0.183000,1.676000,2.233000,2.236000,1.065216
1900.14404297,21216.74218750,37.75385666,924272.000000,0.507000,0.310000,0.183000,1.676000,2.233000,2.236000,1.065216
1899.81530762,21217.29882812,37.78052521,924272.000000,0.507000,0.310000,0.183000,1.676000,2.233000,2.236000,1.065216
1900.32922363,21217.04296875,37.73844910,924272.000000,0.507000,0.310000,0.183000,1.676000,2.233000,2.236000,1.065216
1899.63830566,21216.95507812,38.20341492,924272.000000,0.507000,0.310000,0.183000,1.676000,2.233000,2.236000,1.065216
1900.16455078,21216.88867188,37.75104141,924272.000000,0.507000,0.310000,0.183000,1.676000,2.233000,2.236000,1.065216
1899.67285156,21216.62109375,38.26271057,924272.000000,0.507000,0.310000,0.183000,1.676000,2.233000,2.236000,1.065216
1899.66149902,21216.71484375,38.12046814,924272.000000,0.507000,0.310000,0.183000,1.676000,2.233000,2.236000,1.065216
1900.32275391,21217.08984375,37.73929977,924272.000000,0.507000,0.310000,0.183000,1.676000,2.233000,2.236000,1.065216
1899.64550781,21217.05273438,38.26361465,924272.000000,0.507000,0.310000,0.183000,1.676000,2.233000,2.236000,1.065216
1900.03857422,21217.02343750,37.75744629,924272.000000,0.507000,0.310000,0.183000,1.676000,2.233000,2.236000,1.065216
1899.82690430,21217.30078125,37.78010178,924272.000000,0.507000,0.310000,0.183000,1.676000,2.233000,2.236000,1.065216
1899.65454102,21217.00195312,37.95761871,924272.000000,0.507000,0.310000,0.183000,1.676000,2.233000,2.236000,1.065216
1900.35070801,21216.51757812,37.74207306,924272.000000,0.507000,0.310000,0.183000,1.676000,2.233000,2.236000,1.065216
1900.41674805,21217.00000000,37.72929382,924272.000000,0.507000,0.310000,0.183000,1.676000,2.233000,2.236000,1.065216
1899.66149902,21216.76367188,38.14397049,924272.000000,0.507000,0.310000,0.183000,1.676000,2.233000,2.236000,1.065216
1900.25561523,21216.70117188,37.74152756,924272.000000,0.507000,0.310000,0.183000,1.676000,2.233000,2.236000,1.065216
1899.66918945,21216.66992188,38.30106735,924272.000000,0.507000,0.310000,0.183000,1.676000,2.233000,2.236000,1.065216
1900.36621094,21217.23828125,37.72477722,924272.000000,0.507000,0.310000,0.183000,1.676000,2.233000,2.236000,1.065216
1900.04736328,21217.31445312,37.74616241,924272.000000,0.507000,0.310000,0.183000,1.676000,2.233000,2.236000,1.065216
1899.98876953,21217.21289062,37.76169586,924272.000000,0.507000,0.310000,0.183000,1.676000,2.233000,2.236000,1.065216
1899.66284180,21216.71484375,38.07471466,924272.000000,0.507000,0.310000,0.183000,1.676000,2.233000,2.236000,1.065216
1900.23010254,21217.37500000,37.74159241,924272.000000,0.507000,0.310000,0.183000,1.676000,2.233000,2.236000,1.065216
1899.70043945,21217.19531250,37.78851318,924272.000000,0.507000,0.310000,0.183000,1.676000,2.233000,2.236000,1.065216
1899.78735352,21216.66992188,37.78821182,924272.000000,0.507000,0.310000,0.183000,1.676000,2.233000,2.236000,1.065216
1899.64843750,21217.10156250,38.32300186,924272.000000,0.507000,0.310000,0.183000,1.676000,2.233000,2.236000,1.065216
1900.01464844,21217.31250000,37.75716019,924272.000000,0.507000,0.310000,0.183000,1.676000,2.233000,2.236000,1.065216
1899.89514160,21216.96679688,37.77903748,924272.000000,0.507000,0.310000,0.183000,1.676000,2.233000,2.236000,1.065216
1899.63232422,21216.86132812,38.42741013,924272.000000,0.507000,0.310000,0.183000,1.676000,2.233000,2.236000,1.065216
1899.67224121,21216.67187500,38.49088669,924272.000000,0.507000,0.310000,0.183000,1.676000,2.233000,2.236000,1.065216
1900.26660156,21216.94335938,37.74332428,924272.000000,0.507000,0.310000,0.183000,1.676000,2.233000,2.236000,1.065216
1899.79101562,21216.96093750,37.78549957,924272.000000,0.507000,0.310000,0.183000,1.676000,2.233000,2.236000,1.065216
1900.00219727,21216.87695312,37.75663376,924272.000000,0.507000,0.310000,0.183000,1.676000,2.233000,2.236000,1.065216
1899.66430664,21216.71679688,38.24063492,924272.000000,0.507000,0.310000,0.183000,1.676000,2.233000,2.236000,1.065216
1899.76318359,21216.52539062,37.78886032,924272.000000,0.507000,0.310000,0.183000,1.676000,2.233000,2.236000,1.065216
1899.63830566,21217.00585938,38.36761475,924272.000000,0.507000,0.310000,0.183000,1.676000,2.233000,2.236000,1.065216
1900.18286133,21216.88867188,37.74812317,924272.000000,0.507000,0.310000,0.183000,1.676000,2.233000,2.236000,1.065216
1899.72753906,21216.90820312,37.79065704,924272.000000,0.507000,0.310000,0.183000,1.676000,2.233000,2.236000,1.065216
1899.64440918,21217.19921875,38.45074463,924272.000000,0.507000,0.310000,0.183000,1.676000,2.233000,2.236000,1.065216
1900.09753418,21217.31835938,37.75114441,924272.000000,0.507000,0.310000,0.183000,1.676000,2.233000,2.236000,1.065216
1899.64550781,21217.15039062,38.42938232,924272.000000,0.507000,0.310000,0.183000,1.676000,2.233000,2.236000,1.065216
1899.64794922,21217.10156250,38.31386185,924272.000000,0.507000,0.310000,0.183000,1.676000,2.233000,2.236000,1.065216
1899.63171387,21217.28906250,37.87010956,924272.000000,0.507000,0.310000,0.183000,1.676000,2.233000,2.236000,1.065216
1899.79211426,21217.29882812,37.78234482,924272.000000,0.507000,0.310000,0.183000,1.676000,2.233000,2.236000,1.065216
1899.62512207,21216.85742188,38.05539322,924272.000000,0.507000,0.310000,0.183000,1.676000,2.233000,2.236000,1.065216
1899.64611816,21217.05273438,38.23704147,924272.000000,0.507000,0.310000,0.183000,1.676000,2.233000,2.236000,1.065216
1900.22509766,21216.55664062,37.74976730,924272.000000,0.507000,0.310000,0.183000,1.676000,2.233000,2.236000,1.065216
1900.16162109,21216.98437500,37.75089264,924272.000000,0.507000,0.310000,0.183000,1.676000,2.233000,2.236000,1.065216
1899.64611816,21217.10156250,38.29537201,924272.000000,0.507000,0.310000,0.183000,1.676000,2.233000,2.236000,1.065216
1900.39294434,21216.85351562,37.72525406,924272.000000,0.507000,0.310000,0.183000,1.676000,2.233000,2.236000,1.065216
1899.63488770,21217.33984375,38.32322311,924272.000000,0.507000,0.310000,0.183000,1.676000,2.233000,2.236000,1.065216
1899.65173340,21217.05273438,38.32840347,924272.000000,0.507000,0.310000,0.183000,1.676000,2.233000,2.236000,1.065216
1900.12915039,21217.12695312,37.75171280,924272.000000,0.507000,0.310000,0.183000,1.676000,2.233000,2.236000,1.065216
1900.16833496,21216.79101562,37.75209045,924272.000000,0.507000,0.310000,0.183000,1.676000,2.233000,2.236000,1.065216
1899.63684082,21217.24414062,38.26183701,924272.000000,0.507000,0.310000,0.183000,1.676000,2.233000,2.236000,1.065216
1900.26513672,21216.55859375,37.74742508,924272.000000,0.507000,0.310000,0.183000,1.676000,2.233000,2.236000,1.065216
1899.66870117,21216.66796875,38.26529312,924272.000000,0.507000,0.310000,0.183000,1.676000,2.233000,2.236000,1.065216
1899.66210938,21216.76562500,38.26192093,924272.000000,0.507000,0.310000,0.183000,1.676000,2.233000,2.236000,1.065216
1899.62170410,21217.24218750,38.11682892,924272.000000,0.507000,0.310000,0.183000,1.676000,2.233000,2.236000,1.065216
1899.64379883,21216.95117188,37.79361343,924272.000000,0.507000,0.310000,0.183000,1.676000,2.233000,2.236000,1.065216
1899.62792969,21216.91015625,38.42928314,924272.000000,0.507000,0.310000,0.183000,1.676000,2.233000,2.236000,1.065216
1899.85412598,21217.15625000,37.78220749,924272.000000,0.507000,0.310000,0.183000,1.676000,2.233000,2.236000,1.065216
1899.70056152,21216.66406250,37.79217529,924272.000000,0.507000,0.310000,0.183000,1.676000,2.233000,2.236000,1.065216
1900.10656738,21217.07617188,37.75467682,924272.000000,0.507000,0.310000,0.183000,1.676000,2.233000,2.236000,1.065216
1900.32849121,21216.75390625,37.73809433,924272.000000,0.507000,0.310000,0.183000,1.676000,2.233000,2.236000,1.065216
1900.35363770,21216.85156250,37.73597717,924272.000000,0.507000,0.310000,0.183000,1.676000,2.233000,2.236000,1.065216
1900.23413086,21217.27734375,37.74163437,924272.000000,0.507000,0.310000,0.183000,1.676000,2.233000,2.236000,1.065216
1899.66650391,21216.71289062,37.95278549,924272.000000,0.507000,0.310000,0.183000,1.676000,2.233000,2.236000,1.065216
1900.41430664,21216.61523438,37.73259735,924272.000000,0.507000,0.310000,0.183000,1.676000,2.233000,2.236000,1.065216
1900.03710938,21216.59179688,37.76916122,924272.000000,0.507000,0.310000,0.183000,1.676000,2.233000,2.236000,1.065216
1900.18615723,21216.55273438,37.75379944,924272.000000,0.507000,0.310000,0.183000,1.676000,2.233000,2.236000,1.065216
1900.13854980,21216.59765625,37.75852585,924272.000000,0.507000,0.310000,0.183000,1.676000,2.233000,2.236000,1.065216
1899.62426758,21216.90625000,38.14381790,924272.000000,0.507000,0.310000,0.183000,1.676000,2.233000,2.236000,1.065216
1900.10351562,21217.22070312,37.75291443,924272.000000,0.507000,0.310000,0.183000,1.676000,2.233000,2.236000,1.065216
1900.22692871,21217.32617188,37.74163818,924272.000000,0.507000,0.310000,0.183000,1.676000,2.233000,2.236000,1.065216
1899.64025879,21216.95703125,38.36351013,924272.000000,0.507000,0.310000,0.183000,1.676000,2.233000,2.236000,1.065216
1900.28747559,21216.84765625,37.74109650,924272.000000,0.507000,0.310000,0.183000,1.676000,2.233000,2.236000,1.065216
1900.39233398,21217.28906250,37.70845032,924272.000000,0.507000,0.310000,0.183000,1.676000,2.233000,2.236000,1.065216
1899.62573242,21216.90625000,38.18149185,924272.000000,0.507000,0.310000,0.183000,1.676000,2.233000,2.236000,1.065216
1899.67211914,21216.61914062,38.17211151,924272.000000,0.507000,0.310000,0.183000,1.676000,2.233000,2.236000,1.065216
1900.19323730,21217.17773438,37.74871826,924272.000000,0.507000,0.310000,0.183000,1.676000,2.233000,2.236000,1.065216
1899.82812500,21217.34765625,37.77698898,924272.000000,0.507000,0.310000,0.183000,1.676000,2.233000,2.236000,1.065216
1899.79528809,21217.15234375,37.78527451,924272.000000,0.507000,0.310000,0.183000,1.676000,2.233000,2.236000,1.065216
1900.19909668,21217.13085938,37.74644089,924272.000000,0.507000,0.310000,0.183000,1.676000,2.233000,2.236000,1.065216
1900.21923828,21216.93945312,37.74802780,924272.000000,0.507000,0.310000,0.183000,1.676000,2.233000,2.236000,1.065216
1899.88610840,21216.72460938,37.78230286,924272.000000,0.507000,0.310000,0.183000,1.676000,2.233000,2.236000,1.065216
1899.64599609,21216.95312500,37.97470856,924272.000000,0.507000,0.310000,0.183000,1.676000,2.233000,2.236000,1.065216
1899.64831543,21217.10156250,38.34013367,924272.000000,0.507000,0.310000,0.183000,1.676000,2.233000,2.236000,1.065216
1900.04284668,21217.07226562,37.75786209,924272.000000,0.507000,0.310000,0.183000,1.676000,2.233000,2.236000,1.065216
1899.66430664,21216.76757812,38.45336533,924272.000000,0.507000,0.310000,0.183000,1.676000,2.233000,2.236000,1.065216
1900.41528320,21217.14453125,37.72961807,924272.000000,0.507000,0.310000,0.183000,1.676000,2.233000,2.236000,1.065216
1899.63464355,21217.34179688,38.39200592,924272.000000,0.507000,0.310000,0.183000,1.676000,2.233000,2.236000,1.065216
1899.64465332,21216.90429688,37.97780609,924272.000000,0.507000,0.310000,0.183000,1.676000,2.233000,2.236000,1.065216
1899.59814453,21217.28710938,37.99372101,924272.000000,0.507000,0.310000,0.183000,1.676000,2.233000,2.236000,1.065216
1899.58056641,21217.28515625,37.80220032,924272.000000,0.507000,0.310000,0.183000,1.676000,2.233000,2.236000,1.065216
1900.01867676,21217.36132812,37.75736237,924272.000000,0.507000,0.310000,0.183000,1.676000,2.233000,2.236000,1.065216
1900.20507812,21216.74609375,37.75000763,924272.000000,0.507000,0.310000,0.183000,1.676000,2.233000,2.236000,1.065216
1900.26953125,21217.18359375,37.74150085,924272.000000,0.507000,0.310000,0.183000,1.676000,2.233000,2.236000,1.065216
1899.63134766,21216.81054688,38.26580429,924272.000000,0.507000,0.310000,0.183000,1.676000,2.233000,2.236000,1.065216
1899.59948730,21217.33593750,38.08524704,924272.000000,0.507000,0.310000,0.183000,1.676000,2.233000,2.236000,1.065216
1899.61621094,21217.00000000,38.07497406,924272.000000,0.507000,0.310000,0.183000,1.676000,2.233000,2.236000,1.065216
1900.19165039,21216.50585938,37.75054550,924272.000000,0.507000,0.310000,0.183000,1.676000,2.233000,2.236000,1.065216
1899.66149902,21216.76562500,38.30558014,924272.000000,0.507000,0.310000,0.183000,1.676000,2.233000,2.236000,1.065216
1899.99584961,21216.77929688,37.76955414,924272.000000,0.507000,0.310000,0.183000,1.676000,2.233000,2.236000,1.065216
1899.67004395,21216.66406250,37.94991684,924272.000000,0.507000,0.310000,0.183000,1.676000,2.233000,2.236000,1.065216
1899.79113770,21217.25000000,37.78490448,924272.000000,0.507000,0.310000,0.183000,1.676000,2.233000,2.236000,1.065216
1899.72338867,21216.52343750,37.78853226,924272.000000,0.507000,0.310000,0.183000,1.676000,2.233000,2.236000,1.065216
1899.67529297,21216.62109375,38.20133972,924272.000000,0.507000,0.310000,0.183000,1.676000,2.233000,2.236000,1.065216
1900.34997559,21216.94726562,37.72491837,924272.000000,0.507000,0.310000,0.183000,1.676000,2.233000,2.236000,1.065216
1900.10192871,21216.73828125,37.74577713,924272.000000,0.507000,0.310000,0.183000,1.676000,2.233000,2.236000,1.065216
1899.66540527,21216.75976562,37.86839676,924272.000000,0.507000,0.310000,0.183000,1.676000,2.233000,2.236000,1.065216
1899.76892090,21216.86328125,37.78654861,924272.000000,0.507000,0.310000,0.183000,1.676000,2.233000,2.236000,1.065216
1899.64099121,21217.24609375,38.38616562,924272.000000,0.507000,0.310000,0.183000,1.676000,2.233000,2.236000,1.065216
1900.13647461,21217.27148438,37.74994659,924272.000000,0.507000,0.310000,0.183000,1.676000,2.233000,2.236000,1.065216
1900.08142090,21216.64062500,37.76517868,924272.000000,0.507000,0.310000,0.183000,1.676000,2.233000,2.236000,1.065216
1899.64135742,21217.04687500,37.87548828,924272.000000,0.507000,0.310000,0.183000,1.676000,2.233000,2.236000,1.065216
1899.97131348,21216.63476562,37.77043533,924272.000000,0.507000,0.310000,0.183000,1.676000,2.233000,2.236000,1.065216
1899.95324707,21217.16406250,37.76419449,924272.000000,0.507000,0.310000,0.183000,1.676000,2.233000,2.236000,1.065216
1899.67224121,21216.62109375,38.24435043,924272.000000,0.507000,0.310000,0.183000,1.676000,2.233000,2.236000,1.065216
