//X,Y,Z,R,G,B,Scalar field,Scalar field #2,Scalar field #3,Scalar field #4,Scalar field #5,Scalar field #6,Scalar field #7,(SF#6) - (SF#4)
1900.47753906,21210.42578125,38.62059784,155,222,67,935092.000000,0.425000,0.544000,0.031000,1.606000,1.873000,2.166000,0.560000
1900.15563965,21210.45117188,38.81395721,155,222,67,935092.000000,0.425000,0.544000,0.031000,1.606000,1.873000,2.166000,0.560000
1899.99145508,21209.68164062,38.93550491,155,222,67,935092.000000,0.425000,0.544000,0.031000,1.606000,1.873000,2.166000,0.560000
1899.72253418,21209.80273438,39.43879700,155,222,67,935092.000000,0.425000,0.544000,0.031000,1.606000,1.873000,2.166000,0.560000
1900.48425293,21210.28320312,38.56578445,155,222,67,935092.000000,0.425000,0.544000,0.031000,1.606000,1.873000,2.166000,0.560000
1900.40307617,21209.56640625,38.69277191,155,222,67,935092.000000,0.425000,0.544000,0.031000,1.606000,1.873000,2.166000,0.560000
1900.49340820,21209.80859375,38.63362503,155,222,67,935092.000000,0.425000,0.544000,0.031000,1.606000,1.873000,2.166000,0.560000
1899.76635742,21210.28125000,39.06195068,155,222,67,935092.000000,0.425000,0.544000,0.031000,1.606000,1.873000,2.166000,0.560000
1900.00939941,21209.77734375,38.92593384,155,222,67,935092.000000,0.425000,0.544000,0.031000,1.606000,1.873000,2.166000,0.560000
1900.49279785,21210.14257812,38.56556320,155,222,67,935092.000000,0.425000,0.544000,0.031000,1.606000,1.873000,2.166000,0.560000
1899.73681641,21209.66406250,39.17844391,155,222,67,935092.000000,0.425000,0.544000,0.031000,1.606000,1.873000,2.166000,0.560000
1899.95227051,21210.43750000,38.93636703,155,222,67,935092.000000,0.425000,0.544000,0.031000,1.606000,1.873000,2.166000,0.560000
1899.74645996,21209.52148438,39.42681122,155,222,67,935092.000000,0.425000,0.544000,0.031000,1.606000,1.873000,2.166000,0.560000
1900.28991699,21210.31640625,38.73540878,155,222,67,935092.000000,0.425000,0.544000,0.031000,1.606000,1.873000,2.166000,0.560000
1899.72119141,21209.89843750,39.31497955,155,222,67,935092.000000,0.425000,0.544000,0.031000,1.606000,1.873000,2.166000,0.560000
1900.01538086,21209.68164062,38.92152405,155,222,67,935092.000000,0.425000,0.544000,0.031000,1.606000,1.873000,2.166000,0.560000
1899.90319824,21209.91210938,38.99067307,155,222,67,935092.000000,0.425000,0.544000,0.031000,1.606000,1.873000,2.166000,0.560000
1899.90087891,21209.53320312,39.00162506,155,222,67,935092.000000,0.425000,0.544000,0.031000,1.606000,1.873000,2.166000,0.560000
1900.27233887,21210.17382812,38.75229645,155,222,67,935092.000000,0.425000,0.544000,0.031000,1.606000,1.873000,2.166000,0.560000
1899.69665527,21210.27539062,39.18189240,155,222,67,935092.000000,0.425000,0.544000,0.031000,1.606000,1.873000,2.166000,0.560000
1900.02038574,21210.15625000,38.90711975,155,222,67,935092.000000,0.425000,0.544000,0.031000,1.606000,1.873000,2.166000,0.560000
1899.77648926,21210.14062500,39.06899643,155,222,67,935092.000000,0.425000,0.544000,0.031000,1.606000,1.873000,2.166000,0.560000
1899.79418945,21209.66796875,39.06969452,155,222,67,935092.000000,0.425000,0.544000,0.031000,1.606000,1.873000,2.166000,0.560000
1900.49438477,21210.04687500,38.62520981,155,222,67,935092.000000,0.425000,0.544000,0.031000,1.606000,1.873000,2.166000,0.560000
1900.18176270,21209.64648438,38.81876373,155,222,67,935092.000000,0.425000,0.544000,0.031000,1.606000,1.873000,2.166000,0.560000
1899.69335938,21210.27539062,39.43534470,155,222,67,935092.000000,0.425000,0.544000,0.031000,1.606000,1.873000,2.166000,0.560000
1900.49719238,21209.90429688,38.62857437,155,222,67,935092.000000,0.425000,0.544000,0.031000,1.606000,1.873000,2.166000,0.560000
1900.39855957,21210.04101562,38.68409729,155,222,67,935092.000000,0.425000,0.544000,0.031000,1.606000,1.873000,2.166000,0.560000
1900.39416504,21210.18164062,38.67938232,155,222,67,935092.000000,0.425000,0.544000,0.031000,1.606000,1.873000,2.166000,0.560000
1900.01757812,21210.29882812,38.90211105,155,222,67,935092.000000,0.425000,0.544000,0.031000,1.606000,1.873000,2.166000,0.560000
1900.49987793,21209.90625000,38.50938416,155,222,67,935092.000000,0.425000,0.544000,0.031000,1.606000,1.873000,2.166000,0.560000
1899.90466309,21209.67578125,38.99679947,155,222,67,935092.000000,0.425000,0.544000,0.031000,1.606000,1.873000,2.166000,0.560000
1900.26940918,21210.31640625,38.74798965,155,222,67,935092.000000,0.425000,0.544000,0.031000,1.606000,1.873000,2.166000,0.560000
1899.76867676,21210.42382812,39.05116653,155,222,67,935092.000000,0.425000,0.544000,0.031000,1.606000,1.873000,2.166000,0.560000
1899.97949219,21210.05859375,38.93730545,155,222,67,935092.000000,0.425000,0.544000,0.031000,1.606000,1.873000,2.166000,0.560000
1900.15783691,21210.16601562,38.81989670,155,222,67,935092.000000,0.425000,0.544000,0.031000,1.606000,1.873000,2.166000,0.560000
1900.02343750,21209.91992188,38.91194534,155,222,67,935092.000000,0.425000,0.544000,0.031000,1.606000,1.873000,2.166000,0.560000
1900.41503906,21209.66210938,38.68389511,155,222,67,935092.000000,0.425000,0.544000,0.031000,1.606000,1.873000,2.166000,0.560000
1900.40087891,21209.66015625,38.69122696,155,222,67,935092.000000,0.425000,0.544000,0.031000,1.606000,1.873000,2.166000,0.560000
1900.40539551,21209.89843750,38.68263245,155,222,67,935092.000000,0.425000,0.544000,0.031000,1.606000,1.873000,2.166000,0.560000
1899.96374512,21210.29492188,38.93504333,155,222,67,935092.000000,0.425000,0.544000,0.031000,1.606000,1.873000,2.166000,0.560000
1900.47509766,21210.42578125,38.55182648,155,222,67,935092.000000,0.425000,0.544000,0.031000,1.606000,1.873000,2.166000,0.560000
1900.40124512,21210.41992188,38.66737366,155,222,67,935092.000000,0.425000,0.544000,0.031000,1.606000,1.873000,2.166000,0.560000
1900.20715332,21209.93164062,38.79948044,155,222,67,935092.000000,0.425000,0.544000,0.031000,1.606000,1.873000,2.166000,0.560000
1900.42248535,21209.56640625,38.68050385,155,222,67,935092.000000,0.425000,0.544000,0.031000,1.606000,1.873000,2.166000,0.560000
1899.99987793,21209.53906250,38.93664169,155,222,67,935092.000000,0.425000,0.544000,0.031000,1.606000,1.873000,2.166000,0.560000
1900.49560547,21210.14257812,38.61962509,155,222,67,935092.000000,0.425000,0.544000,0.031000,1.606000,1.873000,2.166000,0.560000
1899.72375488,21209.90039062,39.17612839,155,222,67,935092.000000,0.425000,0.544000,0.031000,1.606000,1.873000,2.166000,0.560000
1899.71203613,21210.03906250,39.31570053,155,222,67,935092.000000,0.425000,0.544000,0.031000,1.606000,1.873000,2.166000,0.560000
1900.15344238,21209.78710938,38.83198166,155,222,67,935092.000000,0.425000,0.544000,0.031000,1.606000,1.873000,2.166000,0.560000
1899.99194336,21209.77539062,38.93452072,155,222,67,935092.000000,0.425000,0.544000,0.031000,1.606000,1.873000,2.166000,0.560000
1900.39770508,21209.89843750,38.68605042,155,222,67,935092.000000,0.425000,0.544000,0.031000,1.606000,1.873000,2.166000,0.560000
1899.68933105,21210.41796875,39.17700577,155,222,67,935092.000000,0.425000,0.544000,0.031000,1.606000,1.873000,2.166000,0.560000
1900.02172852,21210.44140625,38.89425278,155,222,67,935092.000000,0.425000,0.544000,0.031000,1.606000,1.873000,2.166000,0.560000
1900.49475098,21209.66796875,38.63766098,155,222,67,935092.000000,0.425000,0.544000,0.031000,1.606000,1.873000,2.166000,0.560000
1900.16784668,21210.02539062,38.81981277,155,222,67,935092.000000,0.425000,0.544000,0.031000,1.606000,1.873000,2.166000,0.560000
1900.26916504,21210.45898438,38.74650955,155,222,67,935092.000000,0.425000,0.544000,0.031000,1.606000,1.873000,2.166000,0.560000
1900.14672852,21210.44921875,38.81760025,155,222,67,935092.000000,0.425000,0.544000,0.031000,1.606000,1.873000,2.166000,0.560000
1899.90454102,21210.05468750,38.98723984,155,222,67,935092.000000,0.425000,0.544000,0.031000,1.606000,1.873000,2.166000,0.560000
1900.40295410,21210.27734375,38.67004776,155,222,67,935092.000000,0.425000,0.544000,0.031000,1.606000,1.873000,2.166000,0.560000
1899.69641113,21210.27539062,39.30607986,155,222,67,935092.000000,0.425000,0.544000,0.031000,1.606000,1.873000,2.166000,0.560000
1900.26928711,21209.79492188,38.76387787,155,222,67,935092.000000,0.425000,0.544000,0.031000,1.606000,1.873000,2.166000,0.560000
1900.15246582,21209.64453125,38.83641815,155,222,67,935092.000000,0.425000,0.544000,0.031000,1.606000,1.873000,2.166000,0.560000
1900.02099609,21209.54101562,38.92157364,155,222,67,935092.000000,0.425000,0.544000,0.031000,1.606000,1.873000,2.166000,0.560000
1899.72888184,21209.80468750,39.30255890,155,222,67,935092.000000,0.425000,0.544000,0.031000,1.606000,1.873000,2.166000,0.560000
1899.74499512,21209.52148438,39.17954636,155,222,67,935092.000000,0.425000,0.544000,0.031000,1.606000,1.873000,2.166000,0.560000
1899.70300293,21210.18164062,39.17629623,155,222,67,935092.000000,0.425000,0.544000,0.031000,1.606000,1.873000,2.166000,0.560000
1899.69836426,21210.17968750,39.43701553,155,222,67,935092.000000,0.425000,0.544000,0.031000,1.606000,1.873000,2.166000,0.560000
1900.40600586,21210.04101562,38.68051529,155,222,67,935092.000000,0.425000,0.544000,0.031000,1.606000,1.873000,2.166000,0.560000
1900.17785645,21209.78906250,38.82006454,155,222,67,935092.000000,0.425000,0.544000,0.031000,1.606000,1.873000,2.166000,0.560000
1899.71276855,21210.04101562,39.17638016,155,222,67,935092.000000,0.425000,0.544000,0.031000,1.606000,1.873000,2.166000,0.560000
1900.19189453,21209.55273438,38.81673050,155,222,67,935092.000000,0.425000,0.544000,0.031000,1.606000,1.873000,2.166000,0.560000
1899.90148926,21210.14843750,38.98576355,155,222,67,935092.000000,0.425000,0.544000,0.031000,1.606000,1.873000,2.166000,0.560000
1899.74414062,21209.52148438,39.31153107,155,222,67,935092.000000,0.425000,0.544000,0.031000,1.606000,1.873000,2.166000,0.560000
1900.47595215,21210.37890625,38.53223038,155,222,67,935092.000000,0.425000,0.544000,0.031000,1.606000,1.873000,2.166000,0.560000
1899.99267578,21210.06054688,38.92704773,155,222,67,935092.000000,0.425000,0.544000,0.031000,1.606000,1.873000,2.166000,0.560000
1900.10998535,21210.21093750,38.84827423,155,222,67,935092.000000,0.425000,0.544000,0.031000,1.606000,1.873000,2.166000,0.560000
1899.99523926,21209.82226562,38.93191147,155,222,67,935092.000000,0.425000,0.544000,0.031000,1.606000,1.873000,2.166000,0.560000
1900.42773438,21209.51953125,38.67979431,155,222,67,935092.000000,0.425000,0.544000,0.031000,1.606000,1.873000,2.166000,0.560000
1899.73779297,21209.61523438,39.33868790,155,222,67,935092.000000,0.425000,0.544000,0.031000,1.606000,1.873000,2.166000,0.560000
1900.41296387,21210.08789062,38.67376709,155,222,67,935092.000000,0.425000,0.544000,0.031000,1.606000,1.873000,2.166000,0.560000
1899.87194824,21209.62500000,39.02123260,155,222,67,935092.000000,0.425000,0.544000,0.031000,1.606000,1.873000,2.166000,0.560000
1899.72131348,21209.89843750,39.33808899,155,222,67,935092.000000,0.425000,0.544000,0.031000,1.606000,1.873000,2.166000,0.560000
1899.87011719,21210.19335938,39.00173569,155,222,67,935092.000000,0.425000,0.544000,0.031000,1.606000,1.873000,2.166000,0.560000
1900.24877930,21209.55468750,38.78189468,155,222,67,935092.000000,0.425000,0.544000,0.031000,1.606000,1.873000,2.166000,0.560000
1900.37316895,21209.89648438,38.70317841,155,222,67,935092.000000,0.425000,0.544000,0.031000,1.606000,1.873000,2.166000,0.560000
1899.72814941,21209.80468750,39.32569122,155,222,67,935092.000000,0.425000,0.544000,0.031000,1.606000,1.873000,2.166000,0.560000
1900.29882812,21210.12890625,38.73851395,155,222,67,935092.000000,0.425000,0.544000,0.031000,1.606000,1.873000,2.166000,0.560000
1899.86877441,21210.14648438,39.00557327,155,222,67,935092.000000,0.425000,0.544000,0.031000,1.606000,1.873000,2.166000,0.560000
1899.92614746,21209.53320312,38.98716736,155,222,67,935092.000000,0.425000,0.544000,0.031000,1.606000,1.873000,2.166000,0.560000
1900.49890137,21209.57226562,38.64031601,155,222,67,935092.000000,0.425000,0.544000,0.031000,1.606000,1.873000,2.166000,0.560000
1899.86999512,21209.53125000,39.02212143,155,222,67,935092.000000,0.425000,0.544000,0.031000,1.606000,1.873000,2.166000,0.560000
1900.23193359,21209.74414062,38.78794861,155,222,67,935092.000000,0.425000,0.544000,0.031000,1.606000,1.873000,2.166000,0.560000
1900.24731445,21209.88671875,38.77610779,155,222,67,935092.000000,0.425000,0.544000,0.031000,1.606000,1.873000,2.166000,0.560000
1899.77050781,21209.61914062,39.09091187,155,222,67,935092.000000,0.425000,0.544000,0.031000,1.606000,1.873000,2.166000,0.560000
1899.90270996,21210.38671875,38.96715927,155,222,67,935092.000000,0.425000,0.544000,0.031000,1.606000,1.873000,2.166000,0.560000
1899.80395508,21210.04687500,39.05465698,155,222,67,935092.000000,0.425000,0.544000,0.031000,1.606000,1.873000,2.166000,0.560000
1900.47009277,21210.47265625,38.52357864,155,222,67,935092.000000,0.425000,0.544000,0.031000,1.606000,1.873000,2.166000,0.560000
1899.71362305,21209.99414062,39.21172714,155,222,67,935092.000000,0.425000,0.544000,0.031000,1.606000,1.873000,2.166000,0.560000
1899.73461914,21209.75781250,39.15298843,155,222,67,935092.000000,0.425000,0.544000,0.031000,1.606000,1.873000,2.166000,0.560000
1899.99865723,21209.87109375,38.92881012,155,222,67,935092.000000,0.425000,0.544000,0.031000,1.606000,1.873000,2.166000,0.560000
1899.74389648,21209.56835938,39.15878296,155,222,67,935092.000000,0.425000,0.544000,0.031000,1.606000,1.873000,2.166000,0.560000
1900.04992676,21210.15820312,38.88827133,155,222,67,935092.000000,0.425000,0.544000,0.031000,1.606000,1.873000,2.166000,0.560000
1899.84814453,21209.62304688,39.03675842,155,222,67,935092.000000,0.425000,0.544000,0.031000,1.606000,1.873000,2.166000,0.560000
1900.24560547,21210.45703125,38.75766754,155,222,67,935092.000000,0.425000,0.544000,0.031000,1.606000,1.873000,2.166000,0.560000
1900.37280273,21209.65820312,38.70664597,155,222,67,935092.000000,0.425000,0.544000,0.031000,1.606000,1.873000,2.166000,0.560000
1900.11840820,21209.92578125,38.85135651,155,222,67,935092.000000,0.425000,0.544000,0.031000,1.606000,1.873000,2.166000,0.560000
1900.47729492,21210.33007812,38.52828217,155,222,67,935092.000000,0.425000,0.544000,0.031000,1.606000,1.873000,2.166000,0.560000
1899.68920898,21210.46484375,39.20516586,155,222,67,935092.000000,0.425000,0.544000,0.031000,1.606000,1.873000,2.166000,0.560000
1900.10961914,21210.40039062,38.84201813,155,222,67,935092.000000,0.425000,0.544000,0.031000,1.606000,1.873000,2.166000,0.560000
1899.72119141,21209.89843750,39.40690231,155,222,67,935092.000000,0.425000,0.544000,0.031000,1.606000,1.873000,2.166000,0.560000
1899.73986816,21209.61523438,39.20762634,155,222,67,935092.000000,0.425000,0.544000,0.031000,1.606000,1.873000,2.166000,0.560000
1899.99926758,21210.29687500,38.91012955,155,222,67,935092.000000,0.425000,0.544000,0.031000,1.606000,1.873000,2.166000,0.560000
1900.01464844,21210.06250000,38.91263580,155,222,67,935092.000000,0.425000,0.544000,0.031000,1.606000,1.873000,2.166000,0.560000
1900.49267578,21210.18945312,38.61458969,155,222,67,935092.000000,0.425000,0.544000,0.031000,1.606000,1.873000,2.166000,0.560000
1899.83911133,21209.76562500,39.03592300,155,222,67,935092.000000,0.425000,0.544000,0.031000,1.606000,1.873000,2.166000,0.560000
1899.78588867,21210.47265625,39.03836441,155,222,67,935092.000000,0.425000,0.544000,0.031000,1.606000,1.873000,2.166000,0.560000
1899.99645996,21209.63281250,38.93381882,155,222,67,935092.000000,0.425000,0.544000,0.031000,1.606000,1.873000,2.166000,0.560000
1900.41845703,21210.32617188,38.66028214,155,222,67,935092.000000,0.425000,0.544000,0.031000,1.606000,1.873000,2.166000,0.560000
1899.73718262,21209.71093750,39.15843201,155,222,67,935092.000000,0.425000,0.544000,0.031000,1.606000,1.873000,2.166000,0.560000
1900.42443848,21209.70898438,38.67741013,155,222,67,935092.000000,0.425000,0.544000,0.031000,1.606000,1.873000,2.166000,0.560000
1900.22680664,21210.02929688,38.78603745,155,222,67,935092.000000,0.425000,0.544000,0.031000,1.606000,1.873000,2.166000,0.560000
1900.08593750,21210.16015625,38.86497879,155,222,67,935092.000000,0.425000,0.544000,0.031000,1.606000,1.873000,2.166000,0.560000
1900.03259277,21209.58789062,38.91393280,155,222,67,935092.000000,0.425000,0.544000,0.031000,1.606000,1.873000,2.166000,0.560000
1900.11877441,21210.06835938,38.84812546,155,222,67,935092.000000,0.425000,0.544000,0.031000,1.606000,1.873000,2.166000,0.560000
1900.32263184,21210.27148438,38.71763992,155,222,67,935092.000000,0.425000,0.544000,0.031000,1.606000,1.873000,2.166000,0.560000
1900.14001465,21209.88085938,38.84113312,155,222,67,935092.000000,0.425000,0.544000,0.031000,1.606000,1.873000,2.166000,0.560000
1899.79968262,21209.81054688,39.06604767,155,222,67,935092.000000,0.425000,0.544000,0.031000,1.606000,1.873000,2.166000,0.560000
1900.26782227,21210.41015625,38.74853897,155,222,67,935092.000000,0.425000,0.544000,0.031000,1.606000,1.873000,2.166000,0.560000
1899.87207031,21210.38281250,38.98735428,155,222,67,935092.000000,0.425000,0.544000,0.031000,1.606000,1.873000,2.166000,0.560000
1899.92443848,21209.77148438,38.97884369,155,222,67,935092.000000,0.425000,0.544000,0.031000,1.606000,1.873000,2.166000,0.560000
1900.32629395,21210.32031250,38.71614456,155,222,67,935092.000000,0.425000,0.544000,0.031000,1.606000,1.873000,2.166000,0.560000
1899.69189453,21210.37109375,39.15728378,155,222,67,935092.000000,0.425000,0.544000,0.031000,1.606000,1.873000,2.166000,0.560000
1900.13305664,21209.92773438,38.84250641,155,222,67,935092.000000,0.425000,0.544000,0.031000,1.606000,1.873000,2.166000,0.560000
1899.74438477,21209.52148438,39.40327072,155,222,67,935092.000000,0.425000,0.544000,0.031000,1.606000,1.873000,2.166000,0.560000
1900.22839355,21209.93359375,38.78639984,155,222,67,935092.000000,0.425000,0.544000,0.031000,1.606000,1.873000,2.166000,0.560000
1899.70922852,21210.08789062,39.15520477,155,222,67,935092.000000,0.425000,0.544000,0.031000,1.606000,1.873000,2.166000,0.560000
1900.35351562,21209.65820312,38.71939087,155,222,67,935092.000000,0.425000,0.544000,0.031000,1.606000,1.873000,2.166000,0.560000
1900.17468262,21209.88281250,38.81844330,155,222,67,935092.000000,0.425000,0.544000,0.031000,1.606000,1.873000,2.166000,0.560000
1899.79064941,21210.37890625,39.03797913,155,222,67,935092.000000,0.425000,0.544000,0.031000,1.606000,1.873000,2.166000,0.560000
1900.42675781,21210.13671875,38.66289139,155,222,67,935092.000000,0.425000,0.544000,0.031000,1.606000,1.873000,2.166000,0.560000
1899.71325684,21210.08789062,39.28093719,155,222,67,935092.000000,0.425000,0.544000,0.031000,1.606000,1.873000,2.166000,0.560000
1899.74084473,21209.56835938,39.33667374,155,222,67,935092.000000,0.425000,0.544000,0.031000,1.606000,1.873000,2.166000,0.560000
1899.79956055,21210.37890625,39.03302383,155,222,67,935092.000000,0.425000,0.544000,0.031000,1.606000,1.873000,2.166000,0.560000
1899.99816895,21209.77539062,38.92941666,155,222,67,935092.000000,0.425000,0.544000,0.031000,1.606000,1.873000,2.166000,0.560000
1899.71716309,21209.99414062,39.15783310,155,222,67,935092.000000,0.425000,0.544000,0.031000,1.606000,1.873000,2.166000,0.560000
1899.70019531,21210.17968750,39.46776962,155,222,67,935092.000000,0.425000,0.544000,0.031000,1.606000,1.873000,2.166000,0.560000
1899.73742676,21209.61523438,39.46781158,155,222,67,935092.000000,0.425000,0.544000,0.031000,1.606000,1.873000,2.166000,0.560000
1899.80383301,21209.90429688,39.05897141,155,222,67,935092.000000,0.425000,0.544000,0.031000,1.606000,1.873000,2.166000,0.560000
1899.69763184,21210.27539062,39.21343231,155,222,67,935092.000000,0.425000,0.544000,0.031000,1.606000,1.873000,2.166000,0.560000
1900.33520508,21210.17773438,38.71580124,155,222,67,935092.000000,0.425000,0.544000,0.031000,1.606000,1.873000,2.166000,0.560000
1900.00830078,21210.20312500,38.91357803,155,222,67,935092.000000,0.425000,0.544000,0.031000,1.606000,1.873000,2.166000,0.560000
1899.70825195,21210.08593750,39.41002655,155,222,67,935092.000000,0.425000,0.544000,0.031000,1.606000,1.873000,2.166000,0.560000
1899.70458984,21210.18164062,39.20808029,155,222,67,935092.000000,0.425000,0.544000,0.031000,1.606000,1.873000,2.166000,0.560000
1899.82995605,21209.95507812,39.03927612,155,222,67,935092.000000,0.425000,0.544000,0.031000,1.606000,1.873000,2.166000,0.560000
1900.17395020,21209.50390625,38.82822037,155,222,67,935092.000000,0.425000,0.544000,0.031000,1.606000,1.873000,2.166000,0.560000
1899.72314453,21209.89843750,39.28495026,155,222,67,935092.000000,0.425000,0.544000,0.031000,1.606000,1.873000,2.166000,0.560000
1899.73681641,21209.61523438,39.40722275,155,222,67,935092.000000,0.425000,0.544000,0.031000,1.606000,1.873000,2.166000,0.560000
1900.12902832,21210.02148438,38.84070969,155,222,67,935092.000000,0.425000,0.544000,0.031000,1.606000,1.873000,2.166000,0.560000
1900.49511719,21210.04687500,38.52765274,155,222,67,935092.000000,0.425000,0.544000,0.031000,1.606000,1.873000,2.166000,0.560000
1899.99426270,21209.58593750,38.93758774,155,222,67,935092.000000,0.425000,0.544000,0.031000,1.606000,1.873000,2.166000,0.560000
1900.14709473,21209.54882812,38.84264374,155,222,67,935092.000000,0.425000,0.544000,0.031000,1.606000,1.873000,2.166000,0.560000
1900.30505371,21209.55859375,38.74842072,155,222,67,935092.000000,0.425000,0.544000,0.031000,1.606000,1.873000,2.166000,0.560000
1900.34851074,21209.94140625,38.71730804,155,222,67,935092.000000,0.425000,0.544000,0.031000,1.606000,1.873000,2.166000,0.560000
1899.79992676,21210.18945312,39.04848099,155,222,67,935092.000000,0.425000,0.544000,0.031000,1.606000,1.873000,2.166000,0.560000
1899.92358398,21210.24414062,38.96254730,155,222,67,935092.000000,0.425000,0.544000,0.031000,1.606000,1.873000,2.166000,0.560000
1899.80224609,21209.62109375,39.06904221,155,222,67,935092.000000,0.425000,0.544000,0.031000,1.606000,1.873000,2.166000,0.560000
1900.49389648,21209.61914062,38.64097595,155,222,67,935092.000000,0.425000,0.544000,0.031000,1.606000,1.873000,2.166000,0.560000
1899.74230957,21209.56835938,39.21329498,155,222,67,935092.000000,0.425000,0.544000,0.031000,1.606000,1.873000,2.166000,0.560000
1900.31628418,21210.46093750,38.71753311,155,222,67,935092.000000,0.425000,0.544000,0.031000,1.606000,1.873000,2.166000,0.560000
1899.69152832,21210.32226562,39.40848541,155,222,67,935092.000000,0.425000,0.544000,0.031000,1.606000,1.873000,2.166000,0.560000
1900.05187988,21209.68554688,38.89722061,155,222,67,935092.000000,0.425000,0.544000,0.031000,1.606000,1.873000,2.166000,0.560000
1899.68261719,21210.46289062,39.40374756,155,222,67,935092.000000,0.425000,0.544000,0.031000,1.606000,1.873000,2.166000,0.560000
1900.12280273,21210.02148438,38.84576797,155,222,67,935092.000000,0.425000,0.544000,0.031000,1.606000,1.873000,2.166000,0.560000
1899.71606445,21209.99218750,39.33592987,155,222,67,935092.000000,0.425000,0.544000,0.031000,1.606000,1.873000,2.166000,0.560000
1899.69799805,21210.27734375,39.15873337,155,222,67,935092.000000,0.425000,0.544000,0.031000,1.606000,1.873000,2.166000,0.560000
1899.74658203,21209.52148438,39.21130753,155,222,67,935092.000000,0.425000,0.544000,0.031000,1.606000,1.873000,2.166000,0.560000
1900.02148438,21210.01562500,38.91118622,155,222,67,935092.000000,0.425000,0.544000,0.031000,1.606000,1.873000,2.166000,0.560000
1900.48229980,21210.28320312,38.53422546,155,222,67,935092.000000,0.425000,0.544000,0.031000,1.606000,1.873000,2.166000,0.560000
1900.37194824,21210.08593750,38.69681168,155,222,67,935092.000000,0.425000,0.544000,0.031000,1.606000,1.873000,2.166000,0.560000
1900.49316406,21210.14257812,38.58831406,155,222,67,935092.000000,0.425000,0.544000,0.031000,1.606000,1.873000,2.166000,0.560000
1900.14099121,21209.69140625,38.84249115,155,222,67,935092.000000,0.425000,0.544000,0.031000,1.606000,1.873000,2.166000,0.560000
1900.17858887,21210.12109375,38.80996323,155,222,67,935092.000000,0.425000,0.544000,0.031000,1.606000,1.873000,2.166000,0.560000
1900.24707031,21209.50781250,38.78531265,155,222,67,935092.000000,0.425000,0.544000,0.031000,1.606000,1.873000,2.166000,0.560000
1899.83117676,21210.28515625,39.01932907,155,222,67,935092.000000,0.425000,0.544000,0.031000,1.606000,1.873000,2.166000,0.560000
1899.84619141,21209.52929688,39.03765869,155,222,67,935092.000000,0.425000,0.544000,0.031000,1.606000,1.873000,2.166000,0.560000
1899.73522949,21210.37500000,39.07558441,155,222,67,935092.000000,0.425000,0.544000,0.031000,1.606000,1.873000,2.166000,0.560000
1899.74291992,21209.52148438,39.47143173,155,222,67,935092.000000,0.425000,0.544000,0.031000,1.606000,1.873000,2.166000,0.560000
1899.71435547,21209.99218750,39.40460587,155,222,67,935092.000000,0.425000,0.544000,0.031000,1.606000,1.873000,2.166000,0.560000
1900.37182617,21209.56445312,38.70662689,155,222,67,935092.000000,0.425000,0.544000,0.031000,1.606000,1.873000,2.166000,0.560000
1900.24279785,21209.55468750,38.78667068,155,222,67,935092.000000,0.425000,0.544000,0.031000,1.606000,1.873000,2.166000,0.560000
1899.70251465,21210.13281250,39.40433121,155,222,67,935092.000000,0.425000,0.544000,0.031000,1.606000,1.873000,2.166000,0.560000
1900.29870605,21210.08007812,38.74209213,155,222,67,935092.000000,0.425000,0.544000,0.031000,1.606000,1.873000,2.166000,0.560000
1899.72900391,21209.80468750,39.27943039,155,222,67,935092.000000,0.425000,0.544000,0.031000,1.606000,1.873000,2.166000,0.560000
1899.71899414,21209.94531250,39.33298492,155,222,67,935092.000000,0.425000,0.544000,0.031000,1.606000,1.873000,2.166000,0.560000
1900.42822266,21209.80468750,38.67200851,155,222,67,935092.000000,0.425000,0.544000,0.031000,1.606000,1.873000,2.166000,0.560000
1900.34643555,21209.89453125,38.71916962,155,222,67,935092.000000,0.425000,0.544000,0.031000,1.606000,1.873000,2.166000,0.560000
1900.47253418,21210.47265625,38.62297821,155,222,67,935092.000000,0.425000,0.544000,0.031000,1.606000,1.873000,2.166000,0.560000
1899.70654297,21210.13476562,39.33653259,155,222,67,935092.000000,0.425000,0.544000,0.031000,1.606000,1.873000,2.166000,0.560000
1899.86889648,21209.95703125,39.01332855,155,222,67,935092.000000,0.425000,0.544000,0.031000,1.606000,1.873000,2.166000,0.560000
1899.96569824,21209.96289062,38.94706345,155,222,67,935092.000000,0.425000,0.544000,0.031000,1.606000,1.873000,2.166000,0.560000
1899.99304199,21210.25000000,38.91934967,155,222,67,935092.000000,0.425000,0.544000,0.031000,1.606000,1.873000,2.166000,0.560000
1900.10986328,21209.87890625,38.85877991,155,222,67,935092.000000,0.425000,0.544000,0.031000,1.606000,1.873000,2.166000,0.560000
1900.12048340,21210.49609375,38.83371353,155,222,67,935092.000000,0.425000,0.544000,0.031000,1.606000,1.873000,2.166000,0.560000
1900.05383301,21210.25390625,38.88203049,155,222,67,935092.000000,0.425000,0.544000,0.031000,1.606000,1.873000,2.166000,0.560000
1899.87231445,21209.76757812,39.01560974,155,222,67,935092.000000,0.425000,0.544000,0.031000,1.606000,1.873000,2.166000,0.560000
1899.71289062,21209.99218750,39.47241592,155,222,67,935092.000000,0.425000,0.544000,0.031000,1.606000,1.873000,2.166000,0.560000
1899.70947266,21210.08789062,39.33383179,155,222,67,935092.000000,0.425000,0.544000,0.031000,1.606000,1.873000,2.166000,0.560000
1900.12536621,21209.54687500,38.85632324,155,222,67,935092.000000,0.425000,0.544000,0.031000,1.606000,1.873000,2.166000,0.560000
1899.72863770,21209.75585938,39.40644073,155,222,67,935092.000000,0.425000,0.544000,0.031000,1.606000,1.873000,2.166000,0.560000
1900.11779785,21209.78320312,38.85492706,155,222,67,935092.000000,0.425000,0.544000,0.031000,1.606000,1.873000,2.166000,0.560000
1900.23168945,21209.65039062,38.78826904,155,222,67,935092.000000,0.425000,0.544000,0.031000,1.606000,1.873000,2.166000,0.560000
1899.89624023,21210.48046875,38.96699142,155,222,67,935092.000000,0.425000,0.544000,0.031000,1.606000,1.873000,2.166000,0.560000
1899.99841309,21210.01367188,38.92528534,155,222,67,935092.000000,0.425000,0.544000,0.031000,1.606000,1.873000,2.166000,0.560000
1900.17980957,21209.83593750,38.81726074,155,222,67,935092.000000,0.425000,0.544000,0.031000,1.606000,1.873000,2.166000,0.560000
1900.37304688,21209.94335938,38.69987869,155,222,67,935092.000000,0.425000,0.544000,0.031000,1.606000,1.873000,2.166000,0.560000
1899.94848633,21209.67773438,38.96598434,155,222,67,935092.000000,0.425000,0.544000,0.031000,1.606000,1.873000,2.166000,0.560000
1899.72241211,21209.89843750,39.20716858,155,222,67,935092.000000,0.425000,0.544000,0.031000,1.606000,1.873000,2.166000,0.560000
1899.82800293,21210.04882812,39.03892899,155,222,67,935092.000000,0.425000,0.544000,0.031000,1.606000,1.873000,2.166000,0.560000
1900.12268066,21210.40039062,38.83230591,155,222,67,935092.000000,0.425000,0.544000,0.031000,1.606000,1.873000,2.166000,0.560000
1899.68774414,21210.36914062,39.47174072,155,222,67,935092.000000,0.425000,0.544000,0.031000,1.606000,1.873000,2.166000,0.560000
1900.49963379,21210.00000000,38.57893372,155,222,67,935092.000000,0.425000,0.544000,0.031000,1.606000,1.873000,2.166000,0.560000
1899.92651367,21210.48242188,38.94701004,155,222,67,935092.000000,0.425000,0.544000,0.031000,1.606000,1.873000,2.166000,0.560000
1899.93444824,21210.05664062,38.96694183,155,222,67,935092.000000,0.425000,0.544000,0.031000,1.606000,1.873000,2.166000,0.560000
1900.05126953,21209.54296875,38.90261078,155,222,67,935092.000000,0.425000,0.544000,0.031000,1.606000,1.873000,2.166000,0.560000
1899.86816406,21210.33593750,38.98986816,155,222,67,935092.000000,0.425000,0.544000,0.031000,1.606000,1.873000,2.166000,0.560000
1900.21594238,21210.16992188,38.78556824,155,222,67,935092.000000,0.425000,0.544000,0.031000,1.606000,1.873000,2.166000,0.560000
1900.24682617,21210.02929688,38.77291489,155,222,67,935092.000000,0.425000,0.544000,0.031000,1.606000,1.873000,2.166000,0.560000
1900.14099121,21209.78515625,38.84199524,155,222,67,935092.000000,0.425000,0.544000,0.031000,1.606000,1.873000,2.166000,0.560000
1899.99792480,21210.15429688,38.92119980,155,222,67,935092.000000,0.425000,0.544000,0.031000,1.606000,1.873000,2.166000,0.560000
1899.71752930,21209.94531250,39.40906525,155,222,67,935092.000000,0.425000,0.544000,0.031000,1.606000,1.873000,2.166000,0.560000
1900.15087891,21209.50195312,38.84095764,155,222,67,935092.000000,0.425000,0.544000,0.031000,1.606000,1.873000,2.166000,0.560000
1899.76806641,21209.52343750,39.09185028,155,222,67,935092.000000,0.425000,0.544000,0.031000,1.606000,1.873000,2.166000,0.560000
1900.30371094,21210.03320312,38.74031830,155,222,67,935092.000000,0.425000,0.544000,0.031000,1.606000,1.873000,2.166000,0.560000
1900.17651367,21209.69335938,38.81976700,155,222,67,935092.000000,0.425000,0.544000,0.031000,1.606000,1.873000,2.166000,0.560000
1899.69299316,21210.32421875,39.20855713,155,222,67,935092.000000,0.425000,0.544000,0.031000,1.606000,1.873000,2.166000,0.560000
1900.48217773,21210.37695312,38.61843109,155,222,67,935092.000000,0.425000,0.544000,0.031000,1.606000,1.873000,2.166000,0.560000
1900.43249512,21210.04296875,38.66516113,155,222,67,935092.000000,0.425000,0.544000,0.031000,1.606000,1.873000,2.166000,0.560000
1900.12060547,21209.50000000,38.85839844,155,222,67,935092.000000,0.425000,0.544000,0.031000,1.606000,1.873000,2.166000,0.560000
1900.34863281,21209.75195312,38.71648407,155,222,67,935092.000000,0.425000,0.544000,0.031000,1.606000,1.873000,2.166000,0.560000
1900.42626953,21209.75781250,38.67477417,155,222,67,935092.000000,0.425000,0.544000,0.031000,1.606000,1.873000,2.166000,0.560000
1899.73852539,21209.61523438,39.28497696,155,222,67,935092.000000,0.425000,0.544000,0.031000,1.606000,1.873000,2.166000,0.560000
1899.87390137,21209.67382812,39.01747513,155,222,67,935092.000000,0.425000,0.544000,0.031000,1.606000,1.873000,2.166000,0.560000
1899.79919434,21210.33203125,39.03674698,155,222,67,935092.000000,0.425000,0.544000,0.031000,1.606000,1.873000,2.166000,0.560000
1900.30371094,21210.27148438,38.73064423,155,222,67,935092.000000,0.425000,0.544000,0.031000,1.606000,1.873000,2.166000,0.560000
1900.24682617,21209.65039062,38.78030396,155,222,67,935092.000000,0.425000,0.544000,0.031000,1.606000,1.873000,2.166000,0.560000
1900.13867188,21209.83203125,38.84468842,155,222,67,935092.000000,0.425000,0.544000,0.031000,1.606000,1.873000,2.166000,0.560000
1900.37365723,21210.18164062,38.69083023,155,222,67,935092.000000,0.425000,0.544000,0.031000,1.606000,1.873000,2.166000,0.560000
1900.42565918,21209.90039062,38.67104340,155,222,67,935092.000000,0.425000,0.544000,0.031000,1.606000,1.873000,2.166000,0.560000
1900.22387695,21209.83789062,38.79188156,155,222,67,935092.000000,0.425000,0.544000,0.031000,1.606000,1.873000,2.166000,0.560000
1899.99755859,21210.39257812,38.91033936,155,222,67,935092.000000,0.425000,0.544000,0.031000,1.606000,1.873000,2.166000,0.560000
1900.00207520,21210.25000000,38.91501999,155,222,67,935092.000000,0.425000,0.544000,0.031000,1.606000,1.873000,2.166000,0.560000
1899.74365234,21210.32812500,39.07385254,155,222,67,935092.000000,0.425000,0.544000,0.031000,1.606000,1.873000,2.166000,0.560000
1900.01794434,21209.87304688,38.91312027,155,222,67,935092.000000,0.425000,0.544000,0.031000,1.606000,1.873000,2.166000,0.560000
1900.04943848,21210.01562500,38.89162827,155,222,67,935092.000000,0.425000,0.544000,0.031000,1.606000,1.873000,2.166000,0.560000
1900.45654297,21209.57031250,38.66164017,155,222,67,935092.000000,0.425000,0.544000,0.031000,1.606000,1.873000,2.166000,0.560000
1900.44543457,21209.75976562,38.66274261,155,222,67,935092.000000,0.425000,0.544000,0.031000,1.606000,1.873000,2.166000,0.560000
1900.19702148,21210.45312500,38.78738785,155,222,67,935092.000000,0.425000,0.544000,0.031000,1.606000,1.873000,2.166000,0.560000
1900.43762207,21209.99609375,38.66318893,155,222,67,935092.000000,0.425000,0.544000,0.031000,1.606000,1.873000,2.166000,0.560000
1899.83642578,21209.81250000,39.03857422,155,222,67,935092.000000,0.425000,0.544000,0.031000,1.606000,1.873000,2.166000,0.560000
1900.42749023,21209.94726562,38.66901398,155,222,67,935092.000000,0.425000,0.544000,0.031000,1.606000,1.873000,2.166000,0.560000
1900.05456543,21210.06445312,38.88994598,155,222,67,935092.000000,0.425000,0.544000,0.031000,1.606000,1.873000,2.166000,0.560000
1900.20727539,21210.26367188,38.78955460,155,222,67,935092.000000,0.425000,0.544000,0.031000,1.606000,1.873000,2.166000,0.560000
1900.17980957,21210.31054688,38.80373383,155,222,67,935092.000000,0.425000,0.544000,0.031000,1.606000,1.873000,2.166000,0.560000
1899.69165039,21210.36914062,39.33578491,155,222,67,935092.000000,0.425000,0.544000,0.031000,1.606000,1.873000,2.166000,0.560000
1899.69995117,21210.17968750,39.40717697,155,222,67,935092.000000,0.425000,0.544000,0.031000,1.606000,1.873000,2.166000,0.560000
1899.81604004,21210.18945312,39.03820801,155,222,67,935092.000000,0.425000,0.544000,0.031000,1.606000,1.873000,2.166000,0.560000
1900.04931641,21210.39648438,38.87744522,155,222,67,935092.000000,0.425000,0.544000,0.031000,1.606000,1.873000,2.166000,0.560000
1900.49890137,21210.04687500,38.58308029,155,222,67,935092.000000,0.425000,0.544000,0.031000,1.606000,1.873000,2.166000,0.560000
1900.42407227,21210.32617188,38.65581512,155,222,67,935092.000000,0.425000,0.544000,0.031000,1.606000,1.873000,2.166000,0.560000
1900.29736328,21209.89062500,38.74730301,155,222,67,935092.000000,0.425000,0.544000,0.031000,1.606000,1.873000,2.166000,0.560000
1899.90808105,21210.33789062,38.96498871,155,222,67,935092.000000,0.425000,0.544000,0.031000,1.606000,1.873000,2.166000,0.560000
1900.11010742,21209.64062500,38.86405563,155,222,67,935092.000000,0.425000,0.544000,0.031000,1.606000,1.873000,2.166000,0.560000
1900.04016113,21210.30078125,38.88824463,155,222,67,935092.000000,0.425000,0.544000,0.031000,1.606000,1.873000,2.166000,0.560000
1900.48022461,21209.71289062,38.64823914,155,222,67,935092.000000,0.425000,0.544000,0.031000,1.606000,1.873000,2.166000,0.560000
1899.74523926,21209.52148438,39.15633392,155,222,67,935092.000000,0.425000,0.544000,0.031000,1.606000,1.873000,2.166000,0.560000
1899.99353027,21210.20117188,38.92304993,155,222,67,935092.000000,0.425000,0.544000,0.031000,1.606000,1.873000,2.166000,0.560000
1899.93847656,21209.86718750,38.96821594,155,222,67,935092.000000,0.425000,0.544000,0.031000,1.606000,1.873000,2.166000,0.560000
1900.02502441,21209.82421875,38.91254425,155,222,67,935092.000000,0.425000,0.544000,0.031000,1.606000,1.873000,2.166000,0.560000
1900.33752441,21210.08398438,38.71671295,155,222,67,935092.000000,0.425000,0.544000,0.031000,1.606000,1.873000,2.166000,0.560000
1900.32055664,21210.36718750,38.71786118,155,222,67,935092.000000,0.425000,0.544000,0.031000,1.606000,1.873000,2.166000,0.560000
1900.11279297,21210.44726562,38.84056091,155,222,67,935092.000000,0.425000,0.544000,0.031000,1.606000,1.873000,2.166000,0.560000
1899.69360352,21210.27539062,39.40490723,155,222,67,935092.000000,0.425000,0.544000,0.031000,1.606000,1.873000,2.166000,0.560000
1899.74279785,21210.27929688,39.07750702,155,222,67,935092.000000,0.425000,0.544000,0.031000,1.606000,1.873000,2.166000,0.560000
1900.17480469,21210.40429688,38.80269241,155,222,67,935092.000000,0.425000,0.544000,0.031000,1.606000,1.873000,2.166000,0.560000
1899.72045898,21209.94726562,39.15481567,155,222,67,935092.000000,0.425000,0.544000,0.031000,1.606000,1.873000,2.166000,0.560000
1900.11999512,21209.68945312,38.85640717,155,222,67,935092.000000,0.425000,0.544000,0.031000,1.606000,1.873000,2.166000,0.560000
1900.35986328,21209.56250000,38.71538162,155,222,67,935092.000000,0.425000,0.544000,0.031000,1.606000,1.873000,2.166000,0.560000
1900.17687988,21210.26171875,38.80566025,155,222,67,935092.000000,0.425000,0.544000,0.031000,1.606000,1.873000,2.166000,0.560000
1900.03503418,21209.63671875,38.91024017,155,222,67,935092.000000,0.425000,0.544000,0.031000,1.606000,1.873000,2.166000,0.560000
1900.44006348,21209.94921875,38.66079712,155,222,67,935092.000000,0.425000,0.544000,0.031000,1.606000,1.873000,2.166000,0.560000
1900.44140625,21209.80664062,38.66428757,155,222,67,935092.000000,0.425000,0.544000,0.031000,1.606000,1.873000,2.166000,0.560000
1899.98181152,21210.48632812,38.91399384,155,222,67,935092.000000,0.425000,0.544000,0.031000,1.606000,1.873000,2.166000,0.560000
1900.05224609,21210.49023438,38.87318802,155,222,67,935092.000000,0.425000,0.544000,0.031000,1.606000,1.873000,2.166000,0.560000
1899.72448730,21209.80273438,39.40874481,155,222,67,935092.000000,0.425000,0.544000,0.031000,1.606000,1.873000,2.166000,0.560000
1900.49768066,21209.95312500,38.62600708,155,222,67,935092.000000,0.425000,0.544000,0.031000,1.606000,1.873000,2.166000,0.560000
1900.44934082,21209.71093750,38.66114044,155,222,67,935092.000000,0.425000,0.544000,0.031000,1.606000,1.873000,2.166000,0.560000
1900.17443848,21210.02539062,38.81520081,155,222,67,935092.000000,0.425000,0.544000,0.031000,1.606000,1.873000,2.166000,0.560000
1900.36999512,21209.70703125,38.70882797,155,222,67,935092.000000,0.425000,0.544000,0.031000,1.606000,1.873000,2.166000,0.560000
1899.78222656,21209.99804688,39.07522964,155,222,67,935092.000000,0.425000,0.544000,0.031000,1.606000,1.873000,2.166000,0.560000
1899.71813965,21209.89843750,39.46685791,155,222,67,935092.000000,0.425000,0.544000,0.031000,1.606000,1.873000,2.166000,0.560000
1899.70556641,21210.08593750,39.46992493,155,222,67,935092.000000,0.425000,0.544000,0.031000,1.606000,1.873000,2.166000,0.560000
1899.93103027,21210.00781250,38.96938705,155,222,67,935092.000000,0.425000,0.544000,0.031000,1.606000,1.873000,2.166000,0.560000
1899.75439453,21209.94921875,39.09393311,155,222,67,935092.000000,0.425000,0.544000,0.031000,1.606000,1.873000,2.166000,0.560000
1900.24926758,21209.69726562,38.77748871,155,222,67,935092.000000,0.425000,0.544000,0.031000,1.606000,1.873000,2.166000,0.560000
1900.48168945,21210.33007812,38.58392715,155,222,67,935092.000000,0.425000,0.544000,0.031000,1.606000,1.873000,2.166000,0.560000
1899.74157715,21209.56835938,39.46602249,155,222,67,935092.000000,0.425000,0.544000,0.031000,1.606000,1.873000,2.166000,0.560000
1900.41406250,21210.27929688,38.66091156,155,222,67,935092.000000,0.425000,0.544000,0.031000,1.606000,1.873000,2.166000,0.560000
1899.70617676,21210.13476562,39.21287155,155,222,67,935092.000000,0.425000,0.544000,0.031000,1.606000,1.873000,2.166000,0.560000
1899.87268066,21209.91015625,39.01129532,155,222,67,935092.000000,0.425000,0.544000,0.031000,1.606000,1.873000,2.166000,0.560000
1899.76721191,21209.75976562,39.09172821,155,222,67,935092.000000,0.425000,0.544000,0.031000,1.606000,1.873000,2.166000,0.560000
1900.24877930,21210.12500000,38.76689529,155,222,67,935092.000000,0.425000,0.544000,0.031000,1.606000,1.873000,2.166000,0.560000
1900.48278809,21210.33007812,38.62173843,155,222,67,935092.000000,0.425000,0.544000,0.031000,1.606000,1.873000,2.166000,0.560000
1899.87231445,21210.47851562,38.98165512,155,222,67,935092.000000,0.425000,0.544000,0.031000,1.606000,1.873000,2.166000,0.560000
1899.99414062,21210.29687500,38.91590881,155,222,67,935092.000000,0.425000,0.544000,0.031000,1.606000,1.873000,2.166000,0.560000
1900.45300293,21209.61718750,38.66315842,155,222,67,935092.000000,0.425000,0.544000,0.031000,1.606000,1.873000,2.166000,0.560000
1900.24914551,21209.79296875,38.77688980,155,222,67,935092.000000,0.425000,0.544000,0.031000,1.606000,1.873000,2.166000,0.560000
1899.80297852,21209.57421875,39.06628799,155,222,67,935092.000000,0.425000,0.544000,0.031000,1.606000,1.873000,2.166000,0.560000
1900.37060547,21209.99023438,38.70231247,155,222,67,935092.000000,0.425000,0.544000,0.031000,1.606000,1.873000,2.166000,0.560000
1899.84069824,21209.57617188,39.03909683,155,222,67,935092.000000,0.425000,0.544000,0.031000,1.606000,1.873000,2.166000,0.560000
1899.92968750,21209.96093750,38.97241592,155,222,67,935092.000000,0.425000,0.544000,0.031000,1.606000,1.873000,2.166000,0.560000
1899.76086426,21209.90234375,39.09262085,155,222,67,935092.000000,0.425000,0.544000,0.031000,1.606000,1.873000,2.166000,0.560000
1900.49682617,21209.52539062,38.64279938,155,222,67,935092.000000,0.425000,0.544000,0.031000,1.606000,1.873000,2.166000,0.560000
1900.42565918,21210.37304688,38.65399933,155,222,67,935092.000000,0.425000,0.544000,0.031000,1.606000,1.873000,2.166000,0.560000
1899.74645996,21209.52148438,39.33518219,155,222,67,935092.000000,0.425000,0.544000,0.031000,1.606000,1.873000,2.166000,0.560000
1900.42834473,21210.46875000,38.65023422,155,222,67,935092.000000,0.425000,0.544000,0.031000,1.606000,1.873000,2.166000,0.560000
1900.48986816,21210.14257812,38.53332138,155,222,67,935092.000000,0.425000,0.544000,0.031000,1.606000,1.873000,2.166000,0.560000
1899.74316406,21210.18554688,39.08572006,155,222,67,935092.000000,0.425000,0.544000,0.031000,1.606000,1.873000,2.166000,0.560000
1899.92626953,21209.67578125,38.98110580,155,222,67,935092.000000,0.425000,0.544000,0.031000,1.606000,1.873000,2.166000,0.560000
1900.12951660,21210.11718750,38.84133911,155,222,67,935092.000000,0.425000,0.544000,0.031000,1.606000,1.873000,2.166000,0.560000
1899.92419434,21210.00781250,38.97450638,155,222,67,935092.000000,0.425000,0.544000,0.031000,1.606000,1.873000,2.166000,0.560000
1900.23645020,21209.69726562,38.78643799,155,222,67,935092.000000,0.425000,0.544000,0.031000,1.606000,1.873000,2.166000,0.560000
1900.24584961,21210.41015625,38.76042557,155,222,67,935092.000000,0.425000,0.544000,0.031000,1.606000,1.873000,2.166000,0.560000
1899.73168945,21209.70898438,39.33536148,155,222,67,935092.000000,0.425000,0.544000,0.031000,1.606000,1.873000,2.166000,0.560000
1899.74035645,21209.56835938,39.40524292,155,222,67,935092.000000,0.425000,0.544000,0.031000,1.606000,1.873000,2.166000,0.560000
1900.48779297,21210.18945312,38.52897263,155,222,67,935092.000000,0.425000,0.544000,0.031000,1.606000,1.873000,2.166000,0.560000
1900.30297852,21210.46093750,38.72592163,155,222,67,935092.000000,0.425000,0.544000,0.031000,1.606000,1.873000,2.166000,0.560000
1900.49560547,21210.00000000,38.53073120,155,222,67,935092.000000,0.425000,0.544000,0.031000,1.606000,1.873000,2.166000,0.560000
1900.04797363,21209.82617188,38.89874268,155,222,67,935092.000000,0.425000,0.544000,0.031000,1.606000,1.873000,2.166000,0.560000
1899.72351074,21209.90039062,39.15251923,155,222,67,935092.000000,0.425000,0.544000,0.031000,1.606000,1.873000,2.166000,0.560000
1899.87097168,21210.00390625,39.01027679,155,222,67,935092.000000,0.425000,0.544000,0.031000,1.606000,1.873000,2.166000,0.560000
1899.87475586,21209.81445312,39.01168823,155,222,67,935092.000000,0.425000,0.544000,0.031000,1.606000,1.873000,2.166000,0.560000
1899.74279785,21210.46875000,39.06391144,155,222,67,935092.000000,0.425000,0.544000,0.031000,1.606000,1.873000,2.166000,0.560000
1899.70068359,21210.18164062,39.28476715,155,222,67,935092.000000,0.425000,0.544000,0.031000,1.606000,1.873000,2.166000,0.560000
1899.69165039,21210.32226562,39.46893692,155,222,67,935092.000000,0.425000,0.544000,0.031000,1.606000,1.873000,2.166000,0.560000
1899.68811035,21210.36914062,39.40363312,155,222,67,935092.000000,0.425000,0.544000,0.031000,1.606000,1.873000,2.166000,0.560000
1899.80895996,21210.23632812,39.03954315,155,222,67,935092.000000,0.425000,0.544000,0.031000,1.606000,1.873000,2.166000,0.560000
1899.91748047,21210.24414062,38.96787643,155,222,67,935092.000000,0.425000,0.544000,0.031000,1.606000,1.873000,2.166000,0.560000
1899.80139160,21209.95312500,39.06139374,155,222,67,935092.000000,0.425000,0.544000,0.031000,1.606000,1.873000,2.166000,0.560000
1900.11853027,21210.25781250,38.84077454,155,222,67,935092.000000,0.425000,0.544000,0.031000,1.606000,1.873000,2.166000,0.560000
1899.69641113,21210.32421875,39.14666748,155,222,67,935092.000000,0.425000,0.544000,0.031000,1.606000,1.873000,2.166000,0.560000
1899.86047363,21209.57812500,39.02981186,155,222,67,935092.000000,0.425000,0.544000,0.031000,1.606000,1.873000,2.166000,0.560000
1900.17651367,21210.45117188,38.80069733,155,222,67,935092.000000,0.425000,0.544000,0.031000,1.606000,1.873000,2.166000,0.560000
1900.12512207,21210.21093750,38.83971786,155,222,67,935092.000000,0.425000,0.544000,0.031000,1.606000,1.873000,2.166000,0.560000
1899.71423340,21209.99218750,39.28190994,155,222,67,935092.000000,0.425000,0.544000,0.031000,1.606000,1.873000,2.166000,0.560000
1899.79003906,21209.76171875,39.07507324,155,222,67,935092.000000,0.425000,0.544000,0.031000,1.606000,1.873000,2.166000,0.560000
1900.37390137,21209.80078125,38.70335388,155,222,67,935092.000000,0.425000,0.544000,0.031000,1.606000,1.873000,2.166000,0.560000
1899.99926758,21210.48632812,38.90555191,155,222,67,935092.000000,0.425000,0.544000,0.031000,1.606000,1.873000,2.166000,0.560000
1899.72900391,21209.80468750,39.15485382,155,222,67,935092.000000,0.425000,0.544000,0.031000,1.606000,1.873000,2.166000,0.560000
1899.72949219,21209.75585938,39.46715546,155,222,67,935092.000000,0.425000,0.544000,0.031000,1.606000,1.873000,2.166000,0.560000
1899.69396973,21210.27539062,39.46586990,155,222,67,935092.000000,0.425000,0.544000,0.031000,1.606000,1.873000,2.166000,0.560000
1900.37512207,21210.13281250,38.69517517,155,222,67,935092.000000,0.425000,0.544000,0.031000,1.606000,1.873000,2.166000,0.560000
1900.49609375,21209.76171875,38.63108826,155,222,67,935092.000000,0.425000,0.544000,0.031000,1.606000,1.873000,2.166000,0.560000
1899.73278809,21209.75781250,39.19942856,155,222,67,935092.000000,0.425000,0.544000,0.031000,1.606000,1.873000,2.166000,0.560000
1899.93725586,21209.96093750,38.96763992,155,222,67,935092.000000,0.425000,0.544000,0.031000,1.606000,1.873000,2.166000,0.560000
1899.94116211,21209.77148438,38.96990585,155,222,67,935092.000000,0.425000,0.544000,0.031000,1.606000,1.873000,2.166000,0.560000
1900.41357422,21210.37304688,38.66217422,155,222,67,935092.000000,0.425000,0.544000,0.031000,1.606000,1.873000,2.166000,0.560000
1899.71447754,21209.94531250,39.46895599,155,222,67,935092.000000,0.425000,0.544000,0.031000,1.606000,1.873000,2.166000,0.560000
1900.33056641,21210.03515625,38.72366333,155,222,67,935092.000000,0.425000,0.544000,0.031000,1.606000,1.873000,2.166000,0.560000
1900.17578125,21209.64648438,38.82377243,155,222,67,935092.000000,0.425000,0.544000,0.031000,1.606000,1.873000,2.166000,0.560000
1900.48986816,21210.18945312,38.58298874,155,222,67,935092.000000,0.425000,0.544000,0.031000,1.606000,1.873000,2.166000,0.560000
