//X,Y,Z,R,G,B,Scalar field,Scalar field #2,Scalar field #3,Scalar field #4,Scalar field #5,Scalar field #6,Scalar field #7,(SF#6) - (SF#4)
1891.02612305,21304.95507812,38.89383316,20,84,203,926554.000000,0.557000,0.321000,0.122000,1.565000,1.923000,2.156000,0.591000
1890.85058594,21305.06054688,38.88514709,20,84,203,926554.000000,0.557000,0.321000,0.122000,1.565000,1.923000,2.156000,0.591000
1890.84045410,21305.32812500,38.63705444,20,84,203,926554.000000,0.557000,0.321000,0.122000,1.565000,1.923000,2.156000,0.591000
1891.03393555,21304.72265625,39.07919693,20,84,203,926554.000000,0.557000,0.321000,0.122000,1.565000,1.923000,2.156000,0.591000
1891.04113770,21304.52734375,38.67261505,20,84,203,926554.000000,0.557000,0.321000,0.122000,1.565000,1.923000,2.156000,0.591000
1890.89428711,21305.06250000,38.51950073,20,84,203,926554.000000,0.557000,0.321000,0.122000,1.565000,1.923000,2.156000,0.591000
1891.31469727,21304.77929688,38.51119995,20,84,203,926554.000000,0.557000,0.321000,0.122000,1.565000,1.923000,2.156000,0.591000
1891.02575684,21304.91601562,39.13277435,20,84,203,926554.000000,0.557000,0.321000,0.122000,1.565000,1.923000,2.156000,0.591000
1890.65075684,21305.31445312,38.52569962,20,84,203,926554.000000,0.557000,0.321000,0.122000,1.565000,1.923000,2.156000,0.591000
1891.03576660,21304.52734375,39.39307785,20,84,203,926554.000000,0.557000,0.321000,0.122000,1.565000,1.923000,2.156000,0.591000
1891.02697754,21304.95507812,38.64275360,20,84,203,926554.000000,0.557000,0.321000,0.122000,1.565000,1.923000,2.156000,0.591000
1891.08728027,21305.41992188,38.50328064,20,84,203,926554.000000,0.557000,0.321000,0.122000,1.565000,1.923000,2.156000,0.591000
1891.01977539,21304.95507812,38.96984482,20,84,203,926554.000000,0.557000,0.321000,0.122000,1.565000,1.923000,2.156000,0.591000
1891.45666504,21304.86523438,38.50663376,20,84,203,926554.000000,0.557000,0.321000,0.122000,1.565000,1.923000,2.156000,0.591000
1891.39782715,21304.74414062,38.51296997,20,84,203,926554.000000,0.557000,0.321000,0.122000,1.565000,1.923000,2.156000,0.591000
1891.03186035,21304.80078125,39.06632233,20,84,203,926554.000000,0.557000,0.321000,0.122000,1.565000,1.923000,2.156000,0.591000
1891.02282715,21304.91601562,38.84762955,20,84,203,926554.000000,0.557000,0.321000,0.122000,1.565000,1.923000,2.156000,0.591000
1891.01708984,21304.72265625,39.41570663,20,84,203,926554.000000,0.557000,0.321000,0.122000,1.565000,1.923000,2.156000,0.591000
1891.02966309,21304.83789062,38.78552246,20,84,203,926554.000000,0.557000,0.321000,0.122000,1.565000,1.923000,2.156000,0.591000
1891.04711914,21304.52734375,38.87310028,20,84,203,926554.000000,0.557000,0.321000,0.122000,1.565000,1.923000,2.156000,0.591000
1891.03027344,21304.80078125,39.14238358,20,84,203,926554.000000,0.557000,0.321000,0.122000,1.565000,1.923000,2.156000,0.591000
1891.02661133,21304.95507812,38.78936386,20,84,203,926554.000000,0.557000,0.321000,0.122000,1.565000,1.923000,2.156000,0.591000
1891.04162598,21304.56640625,39.20176315,20,84,203,926554.000000,0.557000,0.321000,0.122000,1.565000,1.923000,2.156000,0.591000
1891.01928711,21304.83789062,39.28492355,20,84,203,926554.000000,0.557000,0.321000,0.122000,1.565000,1.923000,2.156000,0.591000
1891.43566895,21304.94140625,38.50949860,20,84,203,926554.000000,0.557000,0.321000,0.122000,1.565000,1.923000,2.156000,0.591000
1891.03491211,21304.52734375,39.17857742,20,84,203,926554.000000,0.557000,0.321000,0.122000,1.565000,1.923000,2.156000,0.591000
1890.68347168,21305.47070312,38.51574707,20,84,203,926554.000000,0.557000,0.321000,0.122000,1.565000,1.923000,2.156000,0.591000
1891.03637695,21304.72265625,38.66116333,20,84,203,926554.000000,0.557000,0.321000,0.122000,1.565000,1.923000,2.156000,0.591000
1891.37390137,21305.05273438,38.50328445,20,84,203,926554.000000,0.557000,0.321000,0.122000,1.565000,1.923000,2.156000,0.591000
1891.02966309,21304.91601562,38.57052994,20,84,203,926554.000000,0.557000,0.321000,0.122000,1.565000,1.923000,2.156000,0.591000
1890.83691406,21305.36523438,38.64444733,20,84,203,926554.000000,0.557000,0.321000,0.122000,1.565000,1.923000,2.156000,0.591000
1891.45104980,21305.01953125,38.50326538,20,84,203,926554.000000,0.557000,0.321000,0.122000,1.565000,1.923000,2.156000,0.591000
1891.03015137,21304.91601562,38.63769531,20,84,203,926554.000000,0.557000,0.321000,0.122000,1.565000,1.923000,2.156000,0.591000
1891.06005859,21305.33984375,38.50210190,20,84,203,926554.000000,0.557000,0.321000,0.122000,1.565000,1.923000,2.156000,0.591000
1891.48876953,21304.59375000,38.50432587,20,84,203,926554.000000,0.557000,0.321000,0.122000,1.565000,1.923000,2.156000,0.591000
1890.84936523,21305.06054688,38.84455109,20,84,203,926554.000000,0.557000,0.321000,0.122000,1.565000,1.923000,2.156000,0.591000
1891.03991699,21304.68359375,38.86645126,20,84,203,926554.000000,0.557000,0.321000,0.122000,1.565000,1.923000,2.156000,0.591000
1891.03137207,21304.83789062,38.91722107,20,84,203,926554.000000,0.557000,0.321000,0.122000,1.565000,1.923000,2.156000,0.591000
1890.73754883,21305.32031250,38.51560211,20,84,203,926554.000000,0.557000,0.321000,0.122000,1.565000,1.923000,2.156000,0.591000
1890.92590332,21305.41015625,38.50709915,20,84,203,926554.000000,0.557000,0.321000,0.122000,1.565000,1.923000,2.156000,0.591000
1891.02026367,21304.80078125,39.31654358,20,84,203,926554.000000,0.557000,0.321000,0.122000,1.565000,1.923000,2.156000,0.591000
1891.26660156,21305.39257812,38.50147629,20,84,203,926554.000000,0.557000,0.321000,0.122000,1.565000,1.923000,2.156000,0.591000
1891.03833008,21304.60546875,38.63634872,20,84,203,926554.000000,0.557000,0.321000,0.122000,1.565000,1.923000,2.156000,0.591000
1891.13610840,21304.80664062,38.51225281,20,84,203,926554.000000,0.557000,0.321000,0.122000,1.565000,1.923000,2.156000,0.591000
1890.87109375,21305.13671875,38.52548599,20,84,203,926554.000000,0.557000,0.321000,0.122000,1.565000,1.923000,2.156000,0.591000
1891.02893066,21304.72265625,38.69845963,20,84,203,926554.000000,0.557000,0.321000,0.122000,1.565000,1.923000,2.156000,0.591000
1891.02673340,21304.60546875,39.49483871,20,84,203,926554.000000,0.557000,0.321000,0.122000,1.565000,1.923000,2.156000,0.591000
1891.00256348,21304.95312500,38.51163483,20,84,203,926554.000000,0.557000,0.321000,0.122000,1.565000,1.923000,2.156000,0.591000
1891.01110840,21304.72265625,39.48941803,20,84,203,926554.000000,0.557000,0.321000,0.122000,1.565000,1.923000,2.156000,0.591000
1891.03161621,21304.80078125,39.23171234,20,84,203,926554.000000,0.557000,0.321000,0.122000,1.565000,1.923000,2.156000,0.591000
1890.63525391,21305.35351562,38.52925110,20,84,203,926554.000000,0.557000,0.321000,0.122000,1.565000,1.923000,2.156000,0.591000
1891.01318359,21304.91601562,39.29399872,20,84,203,926554.000000,0.557000,0.321000,0.122000,1.565000,1.923000,2.156000,0.591000
1891.02795410,21304.91601562,38.86242676,20,84,203,926554.000000,0.557000,0.321000,0.122000,1.565000,1.923000,2.156000,0.591000
1891.03662109,21304.76171875,38.66805267,20,84,203,926554.000000,0.557000,0.321000,0.122000,1.565000,1.923000,2.156000,0.591000
1890.85192871,21305.13671875,38.62911987,20,84,203,926554.000000,0.557000,0.321000,0.122000,1.565000,1.923000,2.156000,0.591000
1891.02429199,21304.68359375,39.49722672,20,84,203,926554.000000,0.557000,0.321000,0.122000,1.565000,1.923000,2.156000,0.591000
1891.03613281,21304.52734375,39.06400299,20,84,203,926554.000000,0.557000,0.321000,0.122000,1.565000,1.923000,2.156000,0.591000
1891.38061523,21304.70507812,38.51060867,20,84,203,926554.000000,0.557000,0.321000,0.122000,1.565000,1.923000,2.156000,0.591000
1891.01513672,21304.95507812,39.47509766,20,84,203,926554.000000,0.557000,0.321000,0.122000,1.565000,1.923000,2.156000,0.591000
1891.03259277,21304.83789062,38.81259918,20,84,203,926554.000000,0.557000,0.321000,0.122000,1.565000,1.923000,2.156000,0.591000
1891.02868652,21304.52734375,39.47882462,20,84,203,926554.000000,0.557000,0.321000,0.122000,1.565000,1.923000,2.156000,0.591000
1891.25073242,21304.85156250,38.51152420,20,84,203,926554.000000,0.557000,0.321000,0.122000,1.565000,1.923000,2.156000,0.591000
1891.02368164,21304.87695312,38.85565948,20,84,203,926554.000000,0.557000,0.321000,0.122000,1.565000,1.923000,2.156000,0.591000
1891.37695312,21305.16992188,38.50088501,20,84,203,926554.000000,0.557000,0.321000,0.122000,1.565000,1.923000,2.156000,0.591000
1890.94506836,21305.37109375,38.50639343,20,84,203,926554.000000,0.557000,0.321000,0.122000,1.565000,1.923000,2.156000,0.591000
1890.84484863,21305.06054688,39.25214767,20,84,203,926554.000000,0.557000,0.321000,0.122000,1.565000,1.923000,2.156000,0.591000
1891.03002930,21304.68359375,38.99305344,20,84,203,926554.000000,0.557000,0.321000,0.122000,1.565000,1.923000,2.156000,0.591000
1891.03393555,21304.56640625,38.94330597,20,84,203,926554.000000,0.557000,0.321000,0.122000,1.565000,1.923000,2.156000,0.591000
1891.03247070,21304.83984375,39.08529282,20,84,203,926554.000000,0.557000,0.321000,0.122000,1.565000,1.923000,2.156000,0.591000
1891.02929688,21304.80078125,39.28112411,20,84,203,926554.000000,0.557000,0.321000,0.122000,1.565000,1.923000,2.156000,0.591000
1891.02905273,21304.68359375,38.98004913,20,84,203,926554.000000,0.557000,0.321000,0.122000,1.565000,1.923000,2.156000,0.591000
1890.84265137,21305.06054688,39.49535751,20,84,203,926554.000000,0.557000,0.321000,0.122000,1.565000,1.923000,2.156000,0.591000
1891.02087402,21304.76171875,39.17155457,20,84,203,926554.000000,0.557000,0.321000,0.122000,1.565000,1.923000,2.156000,0.591000
1891.03222656,21304.76171875,39.04693604,20,84,203,926554.000000,0.557000,0.321000,0.122000,1.565000,1.923000,2.156000,0.591000
1890.95141602,21304.98828125,38.96858978,20,84,203,926554.000000,0.557000,0.321000,0.122000,1.565000,1.923000,2.156000,0.591000
1891.03088379,21304.80078125,39.12978363,20,84,203,926554.000000,0.557000,0.321000,0.122000,1.565000,1.923000,2.156000,0.591000
1891.04260254,21304.60546875,38.73167038,20,84,203,926554.000000,0.557000,0.321000,0.122000,1.565000,1.923000,2.156000,0.591000
1891.03540039,21304.72265625,38.85932159,20,84,203,926554.000000,0.557000,0.321000,0.122000,1.565000,1.923000,2.156000,0.591000
1891.03271484,21304.72265625,38.96306610,20,84,203,926554.000000,0.557000,0.321000,0.122000,1.565000,1.923000,2.156000,0.591000
1891.13061523,21305.46093750,38.50188065,20,84,203,926554.000000,0.557000,0.321000,0.122000,1.565000,1.923000,2.156000,0.591000
1890.88024902,21305.09960938,38.53562164,20,84,203,926554.000000,0.557000,0.321000,0.122000,1.565000,1.923000,2.156000,0.591000
1891.03125000,21304.72265625,38.55089188,20,84,203,926554.000000,0.557000,0.321000,0.122000,1.565000,1.923000,2.156000,0.591000
1891.01025391,21305.25976562,38.50632477,20,84,203,926554.000000,0.557000,0.321000,0.122000,1.565000,1.923000,2.156000,0.591000
1891.03222656,21304.68359375,39.37474060,20,84,203,926554.000000,0.557000,0.321000,0.122000,1.565000,1.923000,2.156000,0.591000
1891.43737793,21304.70898438,38.50884628,20,84,203,926554.000000,0.557000,0.321000,0.122000,1.565000,1.923000,2.156000,0.591000
1891.01513672,21304.95312500,38.98153305,20,84,203,926554.000000,0.557000,0.321000,0.122000,1.565000,1.923000,2.156000,0.591000
1890.81481934,21305.47851562,38.50898743,20,84,203,926554.000000,0.557000,0.321000,0.122000,1.565000,1.923000,2.156000,0.591000
1891.18957520,21304.69335938,38.51099396,20,84,203,926554.000000,0.557000,0.321000,0.122000,1.565000,1.923000,2.156000,0.591000
1891.02978516,21304.76171875,38.69221878,20,84,203,926554.000000,0.557000,0.321000,0.122000,1.565000,1.923000,2.156000,0.591000
1890.89013672,21304.98437500,39.05532074,20,84,203,926554.000000,0.557000,0.321000,0.122000,1.565000,1.923000,2.156000,0.591000
1891.03210449,21304.56640625,38.87725830,20,84,203,926554.000000,0.557000,0.321000,0.122000,1.565000,1.923000,2.156000,0.591000
1891.02478027,21304.91601562,39.23429108,20,84,203,926554.000000,0.557000,0.321000,0.122000,1.565000,1.923000,2.156000,0.591000
1890.76879883,21304.97851562,39.41489410,20,84,203,926554.000000,0.557000,0.321000,0.122000,1.565000,1.923000,2.156000,0.591000
1891.03051758,21304.68359375,38.69126892,20,84,203,926554.000000,0.557000,0.321000,0.122000,1.565000,1.923000,2.156000,0.591000
1891.03088379,21304.76171875,39.05947113,20,84,203,926554.000000,0.557000,0.321000,0.122000,1.565000,1.923000,2.156000,0.591000
1891.02331543,21304.72265625,39.31731796,20,84,203,926554.000000,0.557000,0.321000,0.122000,1.565000,1.923000,2.156000,0.591000
1891.12500000,21304.68945312,38.51229095,20,84,203,926554.000000,0.557000,0.321000,0.122000,1.565000,1.923000,2.156000,0.591000
1891.03405762,21304.72265625,38.56584930,20,84,203,926554.000000,0.557000,0.321000,0.122000,1.565000,1.923000,2.156000,0.591000
1891.01123047,21304.99218750,38.73763275,20,84,203,926554.000000,0.557000,0.321000,0.122000,1.565000,1.923000,2.156000,0.591000
1891.02600098,21304.87695312,38.99926376,20,84,203,926554.000000,0.557000,0.321000,0.122000,1.565000,1.923000,2.156000,0.591000
1890.84228516,21305.05859375,38.69326782,20,84,203,926554.000000,0.557000,0.321000,0.122000,1.565000,1.923000,2.156000,0.591000
1891.03466797,21304.64453125,38.75073624,20,84,203,926554.000000,0.557000,0.321000,0.122000,1.565000,1.923000,2.156000,0.591000
1891.03259277,21304.76171875,39.25052643,20,84,203,926554.000000,0.557000,0.321000,0.122000,1.565000,1.923000,2.156000,0.591000
1891.02258301,21304.79882812,38.98629379,20,84,203,926554.000000,0.557000,0.321000,0.122000,1.565000,1.923000,2.156000,0.591000
1891.01660156,21304.95312500,38.54423904,20,84,203,926554.000000,0.557000,0.321000,0.122000,1.565000,1.923000,2.156000,0.591000
1891.12854004,21304.96093750,38.50720978,20,84,203,926554.000000,0.557000,0.321000,0.122000,1.565000,1.923000,2.156000,0.591000
1891.03051758,21304.60546875,39.33362961,20,84,203,926554.000000,0.557000,0.321000,0.122000,1.565000,1.923000,2.156000,0.591000
1891.01025391,21304.87500000,38.51581955,20,84,203,926554.000000,0.557000,0.321000,0.122000,1.565000,1.923000,2.156000,0.591000
1891.03332520,21304.72265625,39.00191879,20,84,203,926554.000000,0.557000,0.321000,0.122000,1.565000,1.923000,2.156000,0.591000
1891.03674316,21304.68359375,38.61304474,20,84,203,926554.000000,0.557000,0.321000,0.122000,1.565000,1.923000,2.156000,0.591000
1891.02648926,21304.72265625,38.98684692,20,84,203,926554.000000,0.557000,0.321000,0.122000,1.565000,1.923000,2.156000,0.591000
1891.02600098,21304.91601562,39.04322815,20,84,203,926554.000000,0.557000,0.321000,0.122000,1.565000,1.923000,2.156000,0.591000
1891.02893066,21304.91601562,38.94104004,20,84,203,926554.000000,0.557000,0.321000,0.122000,1.565000,1.923000,2.156000,0.591000
1891.02758789,21304.72265625,39.29349136,20,84,203,926554.000000,0.557000,0.321000,0.122000,1.565000,1.923000,2.156000,0.591000
1891.02978516,21304.60546875,39.18197250,20,84,203,926554.000000,0.557000,0.321000,0.122000,1.565000,1.923000,2.156000,0.591000
1891.25158691,21304.77539062,38.51192093,20,84,203,926554.000000,0.557000,0.321000,0.122000,1.565000,1.923000,2.156000,0.591000
1891.03161621,21304.64453125,39.19039536,20,84,203,926554.000000,0.557000,0.321000,0.122000,1.565000,1.923000,2.156000,0.591000
1890.84240723,21305.06054688,39.31601715,20,84,203,926554.000000,0.557000,0.321000,0.122000,1.565000,1.923000,2.156000,0.591000
1891.02014160,21304.72265625,39.36690903,20,84,203,926554.000000,0.557000,0.321000,0.122000,1.565000,1.923000,2.156000,0.591000
1891.03552246,21304.72265625,38.92485428,20,84,203,926554.000000,0.557000,0.321000,0.122000,1.565000,1.923000,2.156000,0.591000
1891.02478027,21304.95312500,38.56126404,20,84,203,926554.000000,0.557000,0.321000,0.122000,1.565000,1.923000,2.156000,0.591000
1891.03027344,21304.87695312,38.92289734,20,84,203,926554.000000,0.557000,0.321000,0.122000,1.565000,1.923000,2.156000,0.591000
1891.02709961,21304.76171875,38.92917252,20,84,203,926554.000000,0.557000,0.321000,0.122000,1.565000,1.923000,2.156000,0.591000
1891.03125000,21304.87695312,38.73929214,20,84,203,926554.000000,0.557000,0.321000,0.122000,1.565000,1.923000,2.156000,0.591000
1891.25622559,21304.69726562,38.51172638,20,84,203,926554.000000,0.557000,0.321000,0.122000,1.565000,1.923000,2.156000,0.591000
1891.37939453,21304.78320312,38.51218033,20,84,203,926554.000000,0.557000,0.321000,0.122000,1.565000,1.923000,2.156000,0.591000
1891.02941895,21304.87695312,39.06498337,20,84,203,926554.000000,0.557000,0.321000,0.122000,1.565000,1.923000,2.156000,0.591000
1891.04113770,21304.56640625,38.62817001,20,84,203,926554.000000,0.557000,0.321000,0.122000,1.565000,1.923000,2.156000,0.591000
1891.04614258,21304.52734375,38.92522049,20,84,203,926554.000000,0.557000,0.321000,0.122000,1.565000,1.923000,2.156000,0.591000
1891.02319336,21304.91601562,39.10670471,20,84,203,926554.000000,0.557000,0.321000,0.122000,1.565000,1.923000,2.156000,0.591000
1891.03063965,21304.60546875,38.83353043,20,84,203,926554.000000,0.557000,0.321000,0.122000,1.565000,1.923000,2.156000,0.591000
1891.02124023,21304.83789062,38.99191666,20,84,203,926554.000000,0.557000,0.321000,0.122000,1.565000,1.923000,2.156000,0.591000
1891.04235840,21304.68359375,38.73534393,20,84,203,926554.000000,0.557000,0.321000,0.122000,1.565000,1.923000,2.156000,0.591000
1890.87841797,21305.25195312,38.51003647,20,84,203,926554.000000,0.557000,0.321000,0.122000,1.565000,1.923000,2.156000,0.591000
1891.02856445,21304.91601562,38.61038208,20,84,203,926554.000000,0.557000,0.321000,0.122000,1.565000,1.923000,2.156000,0.591000
1891.02551270,21304.52734375,39.49049759,20,84,203,926554.000000,0.557000,0.321000,0.122000,1.565000,1.923000,2.156000,0.591000
1891.02062988,21304.75976562,38.97859192,20,84,203,926554.000000,0.557000,0.321000,0.122000,1.565000,1.923000,2.156000,0.591000
1891.02197266,21304.80078125,39.45447540,20,84,203,926554.000000,0.557000,0.321000,0.122000,1.565000,1.923000,2.156000,0.591000
1891.03833008,21304.76171875,38.74863434,20,84,203,926554.000000,0.557000,0.321000,0.122000,1.565000,1.923000,2.156000,0.591000
1891.02941895,21304.68359375,39.36135483,20,84,203,926554.000000,0.557000,0.321000,0.122000,1.565000,1.923000,2.156000,0.591000
1890.85632324,21305.05859375,38.54642868,20,84,203,926554.000000,0.557000,0.321000,0.122000,1.565000,1.923000,2.156000,0.591000
1891.02575684,21304.76171875,38.87625122,20,84,203,926554.000000,0.557000,0.321000,0.122000,1.565000,1.923000,2.156000,0.591000
1891.00305176,21305.33789062,38.50644302,20,84,203,926554.000000,0.557000,0.321000,0.122000,1.565000,1.923000,2.156000,0.591000
1891.04150391,21304.52734375,39.19334412,20,84,203,926554.000000,0.557000,0.321000,0.122000,1.565000,1.923000,2.156000,0.591000
1891.01184082,21304.95507812,39.17289734,20,84,203,926554.000000,0.557000,0.321000,0.122000,1.565000,1.923000,2.156000,0.591000
1891.03381348,21304.76171875,38.62699890,20,84,203,926554.000000,0.557000,0.321000,0.122000,1.565000,1.923000,2.156000,0.591000
1890.83520508,21304.98242188,39.24908066,20,84,203,926554.000000,0.557000,0.321000,0.122000,1.565000,1.923000,2.156000,0.591000
1891.03222656,21304.56640625,39.04616165,20,84,203,926554.000000,0.557000,0.321000,0.122000,1.565000,1.923000,2.156000,0.591000
1891.07055664,21305.26367188,38.50321579,20,84,203,926554.000000,0.557000,0.321000,0.122000,1.565000,1.923000,2.156000,0.591000
1891.00378418,21305.45312500,38.50513840,20,84,203,926554.000000,0.557000,0.321000,0.122000,1.565000,1.923000,2.156000,0.591000
1891.03002930,21304.83789062,38.61215591,20,84,203,926554.000000,0.557000,0.321000,0.122000,1.565000,1.923000,2.156000,0.591000
1890.84973145,21305.21289062,38.62968445,20,84,203,926554.000000,0.557000,0.321000,0.122000,1.565000,1.923000,2.156000,0.591000
1891.03540039,21304.68359375,39.11071777,20,84,203,926554.000000,0.557000,0.321000,0.122000,1.565000,1.923000,2.156000,0.591000
1891.03869629,21304.52734375,39.44363022,20,84,203,926554.000000,0.557000,0.321000,0.122000,1.565000,1.923000,2.156000,0.591000
1891.02661133,21304.83789062,38.69125748,20,84,203,926554.000000,0.557000,0.321000,0.122000,1.565000,1.923000,2.156000,0.591000
1891.03112793,21304.56640625,38.99405670,20,84,203,926554.000000,0.557000,0.321000,0.122000,1.565000,1.923000,2.156000,0.591000
1891.02282715,21304.64453125,39.37757492,20,84,203,926554.000000,0.557000,0.321000,0.122000,1.565000,1.923000,2.156000,0.591000
1891.03039551,21304.52539062,38.51976395,20,84,203,926554.000000,0.557000,0.321000,0.122000,1.565000,1.923000,2.156000,0.591000
1890.84997559,21305.06054688,38.93845367,20,84,203,926554.000000,0.557000,0.321000,0.122000,1.565000,1.923000,2.156000,0.591000
1891.03625488,21304.72265625,38.67452240,20,84,203,926554.000000,0.557000,0.321000,0.122000,1.565000,1.923000,2.156000,0.591000
1890.84765625,21305.06054688,39.35588455,20,84,203,926554.000000,0.557000,0.321000,0.122000,1.565000,1.923000,2.156000,0.591000
1891.03125000,21304.60546875,39.16962814,20,84,203,926554.000000,0.557000,0.321000,0.122000,1.565000,1.923000,2.156000,0.591000
1891.02807617,21304.64453125,39.16424942,20,84,203,926554.000000,0.557000,0.321000,0.122000,1.565000,1.923000,2.156000,0.591000
1891.00512695,21305.14648438,38.50883484,20,84,203,926554.000000,0.557000,0.321000,0.122000,1.565000,1.923000,2.156000,0.591000
1891.04370117,21304.52734375,39.13056946,20,84,203,926554.000000,0.557000,0.321000,0.122000,1.565000,1.923000,2.156000,0.591000
1891.02563477,21304.56640625,39.47391129,20,84,203,926554.000000,0.557000,0.321000,0.122000,1.565000,1.923000,2.156000,0.591000
1891.02368164,21304.95312500,38.62807465,20,84,203,926554.000000,0.557000,0.321000,0.122000,1.565000,1.923000,2.156000,0.591000
1891.03027344,21304.60546875,39.39634705,20,84,203,926554.000000,0.557000,0.321000,0.122000,1.565000,1.923000,2.156000,0.591000
1890.63012695,21305.23632812,38.52915192,20,84,203,926554.000000,0.557000,0.321000,0.122000,1.565000,1.923000,2.156000,0.591000
1891.02832031,21304.68359375,39.18512726,20,84,203,926554.000000,0.557000,0.321000,0.122000,1.565000,1.923000,2.156000,0.591000
1891.01818848,21304.91601562,39.16878510,20,84,203,926554.000000,0.557000,0.321000,0.122000,1.565000,1.923000,2.156000,0.591000
1891.03771973,21304.72265625,38.79460144,20,84,203,926554.000000,0.557000,0.321000,0.122000,1.565000,1.923000,2.156000,0.591000
1891.00976562,21304.95312500,39.10863113,20,84,203,926554.000000,0.557000,0.321000,0.122000,1.565000,1.923000,2.156000,0.591000
1891.04675293,21304.52734375,38.93806076,20,84,203,926554.000000,0.557000,0.321000,0.122000,1.565000,1.923000,2.156000,0.591000
1891.37475586,21304.85937500,38.51069641,20,84,203,926554.000000,0.557000,0.321000,0.122000,1.565000,1.923000,2.156000,0.591000
1890.84838867,21305.06054688,39.04418564,20,84,203,926554.000000,0.557000,0.321000,0.122000,1.565000,1.923000,2.156000,0.591000
1891.19140625,21305.34960938,38.50151062,20,84,203,926554.000000,0.557000,0.321000,0.122000,1.565000,1.923000,2.156000,0.591000
1891.02551270,21304.95507812,38.88107681,20,84,203,926554.000000,0.557000,0.321000,0.122000,1.565000,1.923000,2.156000,0.591000
1891.03234863,21304.76171875,39.11069489,20,84,203,926554.000000,0.557000,0.321000,0.122000,1.565000,1.923000,2.156000,0.591000
1891.44567871,21304.90234375,38.50820923,20,84,203,926554.000000,0.557000,0.321000,0.122000,1.565000,1.923000,2.156000,0.591000
1891.03576660,21304.68359375,39.23730469,20,84,203,926554.000000,0.557000,0.321000,0.122000,1.565000,1.923000,2.156000,0.591000
1891.03674316,21304.60546875,38.60906982,20,84,203,926554.000000,0.557000,0.321000,0.122000,1.565000,1.923000,2.156000,0.591000
1891.02587891,21304.68359375,39.17141724,20,84,203,926554.000000,0.557000,0.321000,0.122000,1.565000,1.923000,2.156000,0.591000
1891.02465820,21304.60546875,39.46981812,20,84,203,926554.000000,0.557000,0.321000,0.122000,1.565000,1.923000,2.156000,0.591000
1891.19189453,21304.96484375,38.50622177,20,84,203,926554.000000,0.557000,0.321000,0.122000,1.565000,1.923000,2.156000,0.591000
1891.03747559,21304.56640625,39.37697601,20,84,203,926554.000000,0.557000,0.321000,0.122000,1.565000,1.923000,2.156000,0.591000
1891.02612305,21304.91601562,39.06927872,20,84,203,926554.000000,0.557000,0.321000,0.122000,1.565000,1.923000,2.156000,0.591000
1891.01831055,21304.99218750,38.60609436,20,84,203,926554.000000,0.557000,0.321000,0.122000,1.565000,1.923000,2.156000,0.591000
1891.03381348,21304.56640625,38.69225311,20,84,203,926554.000000,0.557000,0.321000,0.122000,1.565000,1.923000,2.156000,0.591000
1891.00354004,21304.99218750,38.74832153,20,84,203,926554.000000,0.557000,0.321000,0.122000,1.565000,1.923000,2.156000,0.591000
1891.02880859,21304.79882812,38.84472275,20,84,203,926554.000000,0.557000,0.321000,0.122000,1.565000,1.923000,2.156000,0.591000
1890.75830078,21305.39843750,38.51289368,20,84,203,926554.000000,0.557000,0.321000,0.122000,1.565000,1.923000,2.156000,0.591000
1891.00866699,21304.95507812,39.29848099,20,84,203,926554.000000,0.557000,0.321000,0.122000,1.565000,1.923000,2.156000,0.591000
1891.03002930,21304.60546875,39.42110443,20,84,203,926554.000000,0.557000,0.321000,0.122000,1.565000,1.923000,2.156000,0.591000
1891.03662109,21304.60546875,38.68941116,20,84,203,926554.000000,0.557000,0.321000,0.122000,1.565000,1.923000,2.156000,0.591000
1891.03649902,21304.60546875,39.29732895,20,84,203,926554.000000,0.557000,0.321000,0.122000,1.565000,1.923000,2.156000,0.591000
1891.03125000,21304.80078125,38.93703461,20,84,203,926554.000000,0.557000,0.321000,0.122000,1.565000,1.923000,2.156000,0.591000
1891.03063965,21304.80078125,39.07840347,20,84,203,926554.000000,0.557000,0.321000,0.122000,1.565000,1.923000,2.156000,0.591000
1891.03454590,21304.64453125,38.73714828,20,84,203,926554.000000,0.557000,0.321000,0.122000,1.565000,1.923000,2.156000,0.591000
1891.01965332,21304.87695312,39.37834930,20,84,203,926554.000000,0.557000,0.321000,0.122000,1.565000,1.923000,2.156000,0.591000
1891.03845215,21304.60546875,39.23512268,20,84,203,926554.000000,0.557000,0.321000,0.122000,1.565000,1.923000,2.156000,0.591000
1891.03247070,21304.56640625,38.79854202,20,84,203,926554.000000,0.557000,0.321000,0.122000,1.565000,1.923000,2.156000,0.591000
1891.03051758,21304.56640625,38.82398224,20,84,203,926554.000000,0.557000,0.321000,0.122000,1.565000,1.923000,2.156000,0.591000
1891.03527832,21304.68359375,39.04623795,20,84,203,926554.000000,0.557000,0.321000,0.122000,1.565000,1.923000,2.156000,0.591000
1891.02172852,21304.79882812,39.17833328,20,84,203,926554.000000,0.557000,0.321000,0.122000,1.565000,1.923000,2.156000,0.591000
1891.03100586,21304.68359375,39.42448425,20,84,203,926554.000000,0.557000,0.321000,0.122000,1.565000,1.923000,2.156000,0.591000
1891.04504395,21304.52734375,38.75410461,20,84,203,926554.000000,0.557000,0.321000,0.122000,1.565000,1.923000,2.156000,0.591000
1891.03417969,21304.72265625,38.60639191,20,84,203,926554.000000,0.557000,0.321000,0.122000,1.565000,1.923000,2.156000,0.591000
1891.02893066,21304.91601562,38.62379456,20,84,203,926554.000000,0.557000,0.321000,0.122000,1.565000,1.923000,2.156000,0.591000
1890.83691406,21305.36523438,38.63055801,20,84,203,926554.000000,0.557000,0.321000,0.122000,1.565000,1.923000,2.156000,0.591000
1891.32238770,21304.97265625,38.50693130,20,84,203,926554.000000,0.557000,0.321000,0.122000,1.565000,1.923000,2.156000,0.591000
1891.02307129,21304.83789062,39.17161942,20,84,203,926554.000000,0.557000,0.321000,0.122000,1.565000,1.923000,2.156000,0.591000
1891.03747559,21304.52734375,39.41820526,20,84,203,926554.000000,0.557000,0.321000,0.122000,1.565000,1.923000,2.156000,0.591000
1891.03247070,21304.83789062,38.87858582,20,84,203,926554.000000,0.557000,0.321000,0.122000,1.565000,1.923000,2.156000,0.591000
1891.01855469,21304.91601562,39.35835648,20,84,203,926554.000000,0.557000,0.321000,0.122000,1.565000,1.923000,2.156000,0.591000
1891.44384766,21304.63085938,38.50728989,20,84,203,926554.000000,0.557000,0.321000,0.122000,1.565000,1.923000,2.156000,0.591000
1891.03112793,21304.56640625,39.10969925,20,84,203,926554.000000,0.557000,0.321000,0.122000,1.565000,1.923000,2.156000,0.591000
1891.03723145,21304.64453125,39.00021362,20,84,203,926554.000000,0.557000,0.321000,0.122000,1.565000,1.923000,2.156000,0.591000
1891.03088379,21304.56640625,39.13545227,20,84,203,926554.000000,0.557000,0.321000,0.122000,1.565000,1.923000,2.156000,0.591000
1891.01684570,21304.72265625,39.42823410,20,84,203,926554.000000,0.557000,0.321000,0.122000,1.565000,1.923000,2.156000,0.591000
1890.84216309,21305.05859375,38.73421478,20,84,203,926554.000000,0.557000,0.321000,0.122000,1.565000,1.923000,2.156000,0.591000
1891.03417969,21304.68359375,39.24962234,20,84,203,926554.000000,0.557000,0.321000,0.122000,1.565000,1.923000,2.156000,0.591000
1891.02185059,21304.83984375,39.42292786,20,84,203,926554.000000,0.557000,0.321000,0.122000,1.565000,1.923000,2.156000,0.591000
1891.04235840,21304.52734375,39.25646591,20,84,203,926554.000000,0.557000,0.321000,0.122000,1.565000,1.923000,2.156000,0.591000
1891.02038574,21304.83984375,39.47247696,20,84,203,926554.000000,0.557000,0.321000,0.122000,1.565000,1.923000,2.156000,0.591000
1891.02270508,21304.87695312,39.30405045,20,84,203,926554.000000,0.557000,0.321000,0.122000,1.565000,1.923000,2.156000,0.591000
1891.13134766,21305.15429688,38.50477982,20,84,203,926554.000000,0.557000,0.321000,0.122000,1.565000,1.923000,2.156000,0.591000
1891.03027344,21304.56640625,39.31245422,20,84,203,926554.000000,0.557000,0.321000,0.122000,1.565000,1.923000,2.156000,0.591000
1890.69372559,21305.27929688,38.51844788,20,84,203,926554.000000,0.557000,0.321000,0.122000,1.565000,1.923000,2.156000,0.591000
1891.03125000,21304.83789062,38.74634171,20,84,203,926554.000000,0.557000,0.321000,0.122000,1.565000,1.923000,2.156000,0.591000
1891.04174805,21304.60546875,38.79727936,20,84,203,926554.000000,0.557000,0.321000,0.122000,1.565000,1.923000,2.156000,0.591000
1891.25744629,21305.16210938,38.50284576,20,84,203,926554.000000,0.557000,0.321000,0.122000,1.565000,1.923000,2.156000,0.591000
1891.03308105,21304.76171875,38.68054962,20,84,203,926554.000000,0.557000,0.321000,0.122000,1.565000,1.923000,2.156000,0.591000
1891.25402832,21304.96875000,38.50526428,20,84,203,926554.000000,0.557000,0.321000,0.122000,1.565000,1.923000,2.156000,0.591000
1891.03710938,21304.68359375,38.79959869,20,84,203,926554.000000,0.557000,0.321000,0.122000,1.565000,1.923000,2.156000,0.591000
1891.03894043,21304.60546875,39.10809326,20,84,203,926554.000000,0.557000,0.321000,0.122000,1.565000,1.923000,2.156000,0.591000
1891.03649902,21304.60546875,38.93978500,20,84,203,926554.000000,0.557000,0.321000,0.122000,1.565000,1.923000,2.156000,0.591000
1891.02832031,21304.87695312,38.67174149,20,84,203,926554.000000,0.557000,0.321000,0.122000,1.565000,1.923000,2.156000,0.591000
1891.02697754,21304.76171875,39.37471771,20,84,203,926554.000000,0.557000,0.321000,0.122000,1.565000,1.923000,2.156000,0.591000
1891.03125000,21304.87695312,38.60530472,20,84,203,926554.000000,0.557000,0.321000,0.122000,1.565000,1.923000,2.156000,0.591000
1890.84667969,21305.06054688,39.38116074,20,84,203,926554.000000,0.557000,0.321000,0.122000,1.565000,1.923000,2.156000,0.591000
1891.01708984,21304.91601562,39.49457932,20,84,203,926554.000000,0.557000,0.321000,0.122000,1.565000,1.923000,2.156000,0.591000
1891.02844238,21304.91601562,38.87545395,20,84,203,926554.000000,0.557000,0.321000,0.122000,1.565000,1.923000,2.156000,0.591000
1891.04516602,21304.52734375,39.10511780,20,84,203,926554.000000,0.557000,0.321000,0.122000,1.565000,1.923000,2.156000,0.591000
1891.02929688,21304.56640625,39.09678268,20,84,203,926554.000000,0.557000,0.321000,0.122000,1.565000,1.923000,2.156000,0.591000
1891.02661133,21304.95507812,38.92035294,20,84,203,926554.000000,0.557000,0.321000,0.122000,1.565000,1.923000,2.156000,0.591000
1891.02929688,21304.83789062,38.79742813,20,84,203,926554.000000,0.557000,0.321000,0.122000,1.565000,1.923000,2.156000,0.591000
1891.03332520,21304.80078125,38.75368118,20,84,203,926554.000000,0.557000,0.321000,0.122000,1.565000,1.923000,2.156000,0.591000
1891.00390625,21304.83593750,38.52090073,20,84,203,926554.000000,0.557000,0.321000,0.122000,1.565000,1.923000,2.156000,0.591000
1891.02526855,21304.79882812,38.97401047,20,84,203,926554.000000,0.557000,0.321000,0.122000,1.565000,1.923000,2.156000,0.591000
1890.85034180,21305.06054688,39.11023712,20,84,203,926554.000000,0.557000,0.321000,0.122000,1.565000,1.923000,2.156000,0.591000
1891.02026367,21304.95507812,39.04782867,20,84,203,926554.000000,0.557000,0.321000,0.122000,1.565000,1.923000,2.156000,0.591000
1891.02563477,21304.76171875,38.86282730,20,84,203,926554.000000,0.557000,0.321000,0.122000,1.565000,1.923000,2.156000,0.591000
1891.02001953,21304.87890625,39.49034119,20,84,203,926554.000000,0.557000,0.321000,0.122000,1.565000,1.923000,2.156000,0.591000
1891.02038574,21304.83789062,39.29724884,20,84,203,926554.000000,0.557000,0.321000,0.122000,1.565000,1.923000,2.156000,0.591000
1891.38012695,21304.97656250,38.50527573,20,84,203,926554.000000,0.557000,0.321000,0.122000,1.565000,1.923000,2.156000,0.591000
1891.03625488,21304.76171875,38.81418991,20,84,203,926554.000000,0.557000,0.321000,0.122000,1.565000,1.923000,2.156000,0.591000
1891.02233887,21304.80078125,39.39264297,20,84,203,926554.000000,0.557000,0.321000,0.122000,1.565000,1.923000,2.156000,0.591000
1890.84411621,21305.06054688,39.41921234,20,84,203,926554.000000,0.557000,0.321000,0.122000,1.565000,1.923000,2.156000,0.591000
1891.02697754,21304.87695312,39.12802124,20,84,203,926554.000000,0.557000,0.321000,0.122000,1.565000,1.923000,2.156000,0.591000
1891.03674316,21304.60546875,39.04366302,20,84,203,926554.000000,0.557000,0.321000,0.122000,1.565000,1.923000,2.156000,0.591000
1891.03674316,21304.68359375,38.62614059,20,84,203,926554.000000,0.557000,0.321000,0.122000,1.565000,1.923000,2.156000,0.591000
1891.03857422,21304.52734375,39.35633850,20,84,203,926554.000000,0.557000,0.321000,0.122000,1.565000,1.923000,2.156000,0.591000
1891.01672363,21304.79882812,38.54628372,20,84,203,926554.000000,0.557000,0.321000,0.122000,1.565000,1.923000,2.156000,0.591000
1891.03051758,21304.60546875,39.35902786,20,84,203,926554.000000,0.557000,0.321000,0.122000,1.565000,1.923000,2.156000,0.591000
1891.01171875,21304.91601562,39.31866455,20,84,203,926554.000000,0.557000,0.321000,0.122000,1.565000,1.923000,2.156000,0.591000
1891.03137207,21304.56640625,38.98099518,20,84,203,926554.000000,0.557000,0.321000,0.122000,1.565000,1.923000,2.156000,0.591000
1891.44409180,21304.82617188,38.50759125,20,84,203,926554.000000,0.557000,0.321000,0.122000,1.565000,1.923000,2.156000,0.591000
1891.02478027,21304.95507812,38.74898148,20,84,203,926554.000000,0.557000,0.321000,0.122000,1.565000,1.923000,2.156000,0.591000
1890.76391602,21304.97851562,39.42678833,20,84,203,926554.000000,0.557000,0.321000,0.122000,1.565000,1.923000,2.156000,0.591000
1891.03356934,21304.72265625,39.23162842,20,84,203,926554.000000,0.557000,0.321000,0.122000,1.565000,1.923000,2.156000,0.591000
1891.03332520,21304.76171875,38.80008316,20,84,203,926554.000000,0.557000,0.321000,0.122000,1.565000,1.923000,2.156000,0.591000
1891.02343750,21304.87695312,38.54853821,20,84,203,926554.000000,0.557000,0.321000,0.122000,1.565000,1.923000,2.156000,0.591000
1891.03161621,21304.60546875,38.96410370,20,84,203,926554.000000,0.557000,0.321000,0.122000,1.565000,1.923000,2.156000,0.591000
1890.84082031,21305.28906250,38.62789536,20,84,203,926554.000000,0.557000,0.321000,0.122000,1.565000,1.923000,2.156000,0.591000
1891.02282715,21304.80078125,39.49185562,20,84,203,926554.000000,0.557000,0.321000,0.122000,1.565000,1.923000,2.156000,0.591000
1891.02612305,21304.76171875,39.43659210,20,84,203,926554.000000,0.557000,0.321000,0.122000,1.565000,1.923000,2.156000,0.591000
1891.03479004,21304.76171875,38.73397827,20,84,203,926554.000000,0.557000,0.321000,0.122000,1.565000,1.923000,2.156000,0.591000
1891.04211426,21304.52734375,39.23131943,20,84,203,926554.000000,0.557000,0.321000,0.122000,1.565000,1.923000,2.156000,0.591000
1891.02563477,21304.76171875,38.99325180,20,84,203,926554.000000,0.557000,0.321000,0.122000,1.565000,1.923000,2.156000,0.591000
1890.83508301,21304.98242188,39.23598862,20,84,203,926554.000000,0.557000,0.321000,0.122000,1.565000,1.923000,2.156000,0.591000
1891.02917480,21304.87695312,38.81775284,20,84,203,926554.000000,0.557000,0.321000,0.122000,1.565000,1.923000,2.156000,0.591000
1891.02465820,21304.76171875,39.47369766,20,84,203,926554.000000,0.557000,0.321000,0.122000,1.565000,1.923000,2.156000,0.591000
1891.00720215,21304.95312500,39.18447113,20,84,203,926554.000000,0.557000,0.321000,0.122000,1.565000,1.923000,2.156000,0.591000
1890.75366211,21304.97851562,39.43770599,20,84,203,926554.000000,0.557000,0.321000,0.122000,1.565000,1.923000,2.156000,0.591000
1891.03149414,21304.87695312,38.75251770,20,84,203,926554.000000,0.557000,0.321000,0.122000,1.565000,1.923000,2.156000,0.591000
1891.02758789,21304.76171875,39.36225128,20,84,203,926554.000000,0.557000,0.321000,0.122000,1.565000,1.923000,2.156000,0.591000
1891.21887207,21305.04296875,38.50495529,20,84,203,926554.000000,0.557000,0.321000,0.122000,1.565000,1.923000,2.156000,0.591000
1891.31848145,21304.70117188,38.51121521,20,84,203,926554.000000,0.557000,0.321000,0.122000,1.565000,1.923000,2.156000,0.591000
1891.03186035,21304.72265625,39.12953949,20,84,203,926554.000000,0.557000,0.321000,0.122000,1.565000,1.923000,2.156000,0.591000
1891.02026367,21304.87695312,38.98448181,20,84,203,926554.000000,0.557000,0.321000,0.122000,1.565000,1.923000,2.156000,0.591000
1890.84643555,21305.06054688,39.18753815,20,84,203,926554.000000,0.557000,0.321000,0.122000,1.565000,1.923000,2.156000,0.591000
1890.63781738,21305.46875000,38.52711105,20,84,203,926554.000000,0.557000,0.321000,0.122000,1.565000,1.923000,2.156000,0.591000
1891.03576660,21304.64453125,39.12804794,20,84,203,926554.000000,0.557000,0.321000,0.122000,1.565000,1.923000,2.156000,0.591000
1891.03332520,21304.83789062,38.73374557,20,84,203,926554.000000,0.557000,0.321000,0.122000,1.565000,1.923000,2.156000,0.591000
1891.04296875,21304.60546875,38.87701035,20,84,203,926554.000000,0.557000,0.321000,0.122000,1.565000,1.923000,2.156000,0.591000
1891.04345703,21304.52734375,39.00222397,20,84,203,926554.000000,0.557000,0.321000,0.122000,1.565000,1.923000,2.156000,0.591000
1891.02966309,21304.72265625,38.84405136,20,84,203,926554.000000,0.557000,0.321000,0.122000,1.565000,1.923000,2.156000,0.591000
1891.03088379,21304.52734375,39.31681824,20,84,203,926554.000000,0.557000,0.321000,0.122000,1.565000,1.923000,2.156000,0.591000
1891.04052734,21304.72265625,38.75585938,20,84,203,926554.000000,0.557000,0.321000,0.122000,1.565000,1.923000,2.156000,0.591000
1891.03051758,21304.80078125,39.00128174,20,84,203,926554.000000,0.557000,0.321000,0.122000,1.565000,1.923000,2.156000,0.591000
1891.02954102,21304.83789062,39.04613876,20,84,203,926554.000000,0.557000,0.321000,0.122000,1.565000,1.923000,2.156000,0.591000
1890.81311035,21305.09570312,38.55188751,20,84,203,926554.000000,0.557000,0.321000,0.122000,1.565000,1.923000,2.156000,0.591000
1891.02258301,21304.76171875,39.18440628,20,84,203,926554.000000,0.557000,0.321000,0.122000,1.565000,1.923000,2.156000,0.591000
1891.38159180,21304.93750000,38.51236343,20,84,203,926554.000000,0.557000,0.321000,0.122000,1.565000,1.923000,2.156000,0.591000
1891.02990723,21304.91601562,39.00569916,20,84,203,926554.000000,0.557000,0.321000,0.122000,1.565000,1.923000,2.156000,0.591000
1891.02832031,21304.91601562,38.79680634,20,84,203,926554.000000,0.557000,0.321000,0.122000,1.565000,1.923000,2.156000,0.591000
1891.03417969,21304.72265625,38.93728256,20,84,203,926554.000000,0.557000,0.321000,0.122000,1.565000,1.923000,2.156000,0.591000
1891.03063965,21304.64453125,38.98506165,20,84,203,926554.000000,0.557000,0.321000,0.122000,1.565000,1.923000,2.156000,0.591000
1891.31335449,21305.24218750,38.50168991,20,84,203,926554.000000,0.557000,0.321000,0.122000,1.565000,1.923000,2.156000,0.591000
1891.03173828,21304.80078125,38.85885620,20,84,203,926554.000000,0.557000,0.321000,0.122000,1.565000,1.923000,2.156000,0.591000
1890.85009766,21305.06054688,39.00502777,20,84,203,926554.000000,0.557000,0.321000,0.122000,1.565000,1.923000,2.156000,0.591000
1891.03259277,21304.56640625,38.73242188,20,84,203,926554.000000,0.557000,0.321000,0.122000,1.565000,1.923000,2.156000,0.591000
1890.95837402,21305.18164062,38.51176834,20,84,203,926554.000000,0.557000,0.321000,0.122000,1.565000,1.923000,2.156000,0.591000
1891.01892090,21304.91601562,39.47055817,20,84,203,926554.000000,0.557000,0.321000,0.122000,1.565000,1.923000,2.156000,0.591000
1891.02368164,21304.80078125,39.35542297,20,84,203,926554.000000,0.557000,0.321000,0.122000,1.565000,1.923000,2.156000,0.591000
1890.62792969,21305.42968750,38.52938843,20,84,203,926554.000000,0.557000,0.321000,0.122000,1.565000,1.923000,2.156000,0.591000
1891.02661133,21304.87890625,39.24182129,20,84,203,926554.000000,0.557000,0.321000,0.122000,1.565000,1.923000,2.156000,0.591000
1891.02282715,21304.91601562,39.42158508,20,84,203,926554.000000,0.557000,0.321000,0.122000,1.565000,1.923000,2.156000,0.591000
1891.01293945,21304.79882812,39.32744598,20,84,203,926554.000000,0.557000,0.321000,0.122000,1.565000,1.923000,2.156000,0.591000
1891.06713867,21305.22656250,38.50735092,20,84,203,926554.000000,0.557000,0.321000,0.122000,1.565000,1.923000,2.156000,0.591000
1891.02929688,21304.83789062,39.10977554,20,84,203,926554.000000,0.557000,0.321000,0.122000,1.565000,1.923000,2.156000,0.591000
1891.02648926,21304.95507812,38.73637390,20,84,203,926554.000000,0.557000,0.321000,0.122000,1.565000,1.923000,2.156000,0.591000
1891.02856445,21304.87695312,38.56392670,20,84,203,926554.000000,0.557000,0.321000,0.122000,1.565000,1.923000,2.156000,0.591000
1891.02673340,21304.79882812,38.56410599,20,84,203,926554.000000,0.557000,0.321000,0.122000,1.565000,1.923000,2.156000,0.591000
1891.06481934,21304.60742188,38.51132584,20,84,203,926554.000000,0.557000,0.321000,0.122000,1.565000,1.923000,2.156000,0.591000
1891.02148438,21304.83789062,39.36060715,20,84,203,926554.000000,0.557000,0.321000,0.122000,1.565000,1.923000,2.156000,0.591000
1891.03662109,21304.52734375,39.38074112,20,84,203,926554.000000,0.557000,0.321000,0.122000,1.565000,1.923000,2.156000,0.591000
1891.03161621,21304.83789062,38.94315720,20,84,203,926554.000000,0.557000,0.321000,0.122000,1.565000,1.923000,2.156000,0.591000
1891.03613281,21304.68359375,38.87790680,20,84,203,926554.000000,0.557000,0.321000,0.122000,1.565000,1.923000,2.156000,0.591000
1891.37939453,21304.58789062,38.50997543,20,84,203,926554.000000,0.557000,0.321000,0.122000,1.565000,1.923000,2.156000,0.591000
1891.25122070,21304.58007812,38.50977707,20,84,203,926554.000000,0.557000,0.321000,0.122000,1.565000,1.923000,2.156000,0.591000
1890.82641602,21305.05859375,38.61853027,20,84,203,926554.000000,0.557000,0.321000,0.122000,1.565000,1.923000,2.156000,0.591000
1891.02429199,21304.80078125,39.41788483,20,84,203,926554.000000,0.557000,0.321000,0.122000,1.565000,1.923000,2.156000,0.591000
1891.03515625,21304.64453125,39.25490189,20,84,203,926554.000000,0.557000,0.321000,0.122000,1.565000,1.923000,2.156000,0.591000
1891.03112793,21304.68359375,39.29938507,20,84,203,926554.000000,0.557000,0.321000,0.122000,1.565000,1.923000,2.156000,0.591000
1891.02990723,21304.64453125,38.82821274,20,84,203,926554.000000,0.557000,0.321000,0.122000,1.565000,1.923000,2.156000,0.591000
1891.03247070,21304.76171875,38.61272812,20,84,203,926554.000000,0.557000,0.321000,0.122000,1.565000,1.923000,2.156000,0.591000
1891.02575684,21304.91601562,38.68978500,20,84,203,926554.000000,0.557000,0.321000,0.122000,1.565000,1.923000,2.156000,0.591000
1891.04650879,21304.52734375,38.85976028,20,84,203,926554.000000,0.557000,0.321000,0.122000,1.565000,1.923000,2.156000,0.591000
1891.02087402,21304.75976562,38.93978119,20,84,203,926554.000000,0.557000,0.321000,0.122000,1.565000,1.923000,2.156000,0.591000
1891.44836426,21304.51367188,38.50770187,20,84,203,926554.000000,0.557000,0.321000,0.122000,1.565000,1.923000,2.156000,0.591000
1891.01977539,21304.83789062,39.23446274,20,84,203,926554.000000,0.557000,0.321000,0.122000,1.565000,1.923000,2.156000,0.591000
1891.45117188,21304.74804688,38.50925446,20,84,203,926554.000000,0.557000,0.321000,0.122000,1.565000,1.923000,2.156000,0.591000
1891.04284668,21304.52734375,38.56526947,20,84,203,926554.000000,0.557000,0.321000,0.122000,1.565000,1.923000,2.156000,0.591000
1891.02502441,21304.76171875,39.42437744,20,84,203,926554.000000,0.557000,0.321000,0.122000,1.565000,1.923000,2.156000,0.591000
1891.02600098,21304.95507812,38.81529617,20,84,203,926554.000000,0.557000,0.321000,0.122000,1.565000,1.923000,2.156000,0.591000
1891.02453613,21304.76171875,39.29891968,20,84,203,926554.000000,0.557000,0.321000,0.122000,1.565000,1.923000,2.156000,0.591000
1891.02233887,21304.80078125,39.19125366,20,84,203,926554.000000,0.557000,0.321000,0.122000,1.565000,1.923000,2.156000,0.591000
1891.03173828,21304.68359375,38.54329681,20,84,203,926554.000000,0.557000,0.321000,0.122000,1.565000,1.923000,2.156000,0.591000
1891.04541016,21304.52734375,38.79375076,20,84,203,926554.000000,0.557000,0.321000,0.122000,1.565000,1.923000,2.156000,0.591000
1890.75366211,21305.16796875,38.51689911,20,84,203,926554.000000,0.557000,0.321000,0.122000,1.565000,1.923000,2.156000,0.591000
1891.02990723,21304.80078125,39.29401398,20,84,203,926554.000000,0.557000,0.321000,0.122000,1.565000,1.923000,2.156000,0.591000
1891.03149414,21304.80078125,38.79284286,20,84,203,926554.000000,0.557000,0.321000,0.122000,1.565000,1.923000,2.156000,0.591000
1891.03479004,21304.68359375,38.94309616,20,84,203,926554.000000,0.557000,0.321000,0.122000,1.565000,1.923000,2.156000,0.591000
1891.03381348,21304.72265625,39.06617355,20,84,203,926554.000000,0.557000,0.321000,0.122000,1.565000,1.923000,2.156000,0.591000
1891.02343750,21304.64453125,39.48963547,20,84,203,926554.000000,0.557000,0.321000,0.122000,1.565000,1.923000,2.156000,0.591000
1891.02221680,21304.87695312,39.18993378,20,84,203,926554.000000,0.557000,0.321000,0.122000,1.565000,1.923000,2.156000,0.591000
1891.02600098,21304.95507812,38.66955566,20,84,203,926554.000000,0.557000,0.321000,0.122000,1.565000,1.923000,2.156000,0.591000
1891.04028320,21304.52734375,39.29431915,20,84,203,926554.000000,0.557000,0.321000,0.122000,1.565000,1.923000,2.156000,0.591000
1891.02026367,21304.87890625,39.44072723,20,84,203,926554.000000,0.557000,0.321000,0.122000,1.565000,1.923000,2.156000,0.591000
1891.03515625,21304.80078125,38.87274933,20,84,203,926554.000000,0.557000,0.321000,0.122000,1.565000,1.923000,2.156000,0.591000
1891.03796387,21304.72265625,38.80741501,20,84,203,926554.000000,0.557000,0.321000,0.122000,1.565000,1.923000,2.156000,0.591000
1891.02758789,21304.79882812,38.59139252,20,84,203,926554.000000,0.557000,0.321000,0.122000,1.565000,1.923000,2.156000,0.591000
1891.04687500,21304.52734375,38.80716705,20,84,203,926554.000000,0.557000,0.321000,0.122000,1.565000,1.923000,2.156000,0.591000
1891.02905273,21304.87695312,39.05178070,20,84,203,926554.000000,0.557000,0.321000,0.122000,1.565000,1.923000,2.156000,0.591000
1891.02661133,21304.87695312,39.08961868,20,84,203,926554.000000,0.557000,0.321000,0.122000,1.565000,1.923000,2.156000,0.591000
1891.04675293,21304.52734375,38.55313110,20,84,203,926554.000000,0.557000,0.321000,0.122000,1.565000,1.923000,2.156000,0.591000
1891.03845215,21304.60546875,38.90151596,20,84,203,926554.000000,0.557000,0.321000,0.122000,1.565000,1.923000,2.156000,0.591000
1891.02502441,21304.95507812,38.86752701,20,84,203,926554.000000,0.557000,0.321000,0.122000,1.565000,1.923000,2.156000,0.591000
1891.03515625,21304.72265625,38.64693832,20,84,203,926554.000000,0.557000,0.321000,0.122000,1.565000,1.923000,2.156000,0.591000
1891.02551270,21304.91601562,39.20881271,20,84,203,926554.000000,0.557000,0.321000,0.122000,1.565000,1.923000,2.156000,0.591000
1891.03723145,21304.68359375,39.05983353,20,84,203,926554.000000,0.557000,0.321000,0.122000,1.565000,1.923000,2.156000,0.591000
