//X,Y,Z,R,G,B,Scalar field,Scalar field #2,Scalar field #3,Scalar field #4,Scalar field #5,Scalar field #6,Scalar field #7,(SF#6) - (SF#4)
1899.38134766,21225.62890625,46.84799194,97,238,88,948059.000000,0.587000,0.410000,0.003000,1.416000,1.764000,1.923000,0.507000
1899.45251465,21225.63476562,47.11702728,97,238,88,948059.000000,0.587000,0.410000,0.003000,1.416000,1.764000,1.923000,0.507000
1899.36132812,21225.62890625,46.60040665,97,238,88,948059.000000,0.587000,0.410000,0.003000,1.416000,1.764000,1.923000,0.507000
1899.39941406,21226.11523438,47.12675858,97,238,88,948059.000000,0.587000,0.410000,0.003000,1.416000,1.764000,1.923000,0.507000
1899.31848145,21226.30273438,46.76683426,97,238,88,948059.000000,0.587000,0.410000,0.003000,1.416000,1.764000,1.923000,0.507000
1899.39184570,21225.92187500,47.03641129,97,238,88,948059.000000,0.587000,0.410000,0.003000,1.416000,1.764000,1.923000,0.507000
1899.32775879,21226.16015625,46.65977859,97,238,88,948059.000000,0.587000,0.410000,0.003000,1.416000,1.764000,1.923000,0.507000
1899.40747070,21225.67968750,46.92771912,97,238,88,948059.000000,0.587000,0.410000,0.003000,1.416000,1.764000,1.923000,0.507000
1899.36865234,21226.30468750,46.90083694,97,238,88,948059.000000,0.587000,0.410000,0.003000,1.416000,1.764000,1.923000,0.507000
1899.39929199,21225.82421875,47.03848267,97,238,88,948059.000000,0.587000,0.410000,0.003000,1.416000,1.764000,1.923000,0.507000
1899.36193848,21225.58007812,46.79634857,97,238,88,948059.000000,0.587000,0.410000,0.003000,1.416000,1.764000,1.923000,0.507000
1899.41174316,21226.16406250,47.10907745,97,238,88,948059.000000,0.587000,0.410000,0.003000,1.416000,1.764000,1.923000,0.507000
1899.39904785,21225.82421875,46.90185165,97,238,88,948059.000000,0.587000,0.410000,0.003000,1.416000,1.764000,1.923000,0.507000
1899.44445801,21225.68164062,47.10714340,97,238,88,948059.000000,0.587000,0.410000,0.003000,1.416000,1.764000,1.923000,0.507000
1899.33496094,21226.06445312,46.53047943,97,238,88,948059.000000,0.587000,0.410000,0.003000,1.416000,1.764000,1.923000,0.507000
1899.33081055,21226.16015625,46.52940369,97,238,88,948059.000000,0.587000,0.410000,0.003000,1.416000,1.764000,1.923000,0.507000
1899.33935547,21225.91796875,46.77188873,97,238,88,948059.000000,0.587000,0.410000,0.003000,1.416000,1.764000,1.923000,0.507000
1899.34863281,21225.82226562,46.55948257,97,238,88,948059.000000,0.587000,0.410000,0.003000,1.416000,1.764000,1.923000,0.507000
1899.37670898,21226.16210938,47.01561737,97,238,88,948059.000000,0.587000,0.410000,0.003000,1.416000,1.764000,1.923000,0.507000
1899.41149902,21225.92187500,47.12496567,97,238,88,948059.000000,0.587000,0.410000,0.003000,1.416000,1.764000,1.923000,0.507000
1899.39062500,21225.92187500,46.90290833,97,238,88,948059.000000,0.587000,0.410000,0.003000,1.416000,1.764000,1.923000,0.507000
1899.42517090,21225.58398438,47.12780380,97,238,88,948059.000000,0.587000,0.410000,0.003000,1.416000,1.764000,1.923000,0.507000
1899.41589355,21226.06835938,47.11047745,97,238,88,948059.000000,0.587000,0.410000,0.003000,1.416000,1.764000,1.923000,0.507000
1899.36938477,21226.30468750,47.03601456,97,238,88,948059.000000,0.587000,0.410000,0.003000,1.416000,1.764000,1.923000,0.507000
1899.35949707,21225.67773438,46.53793335,97,238,88,948059.000000,0.587000,0.410000,0.003000,1.416000,1.764000,1.923000,0.507000
1899.35473633,21226.44726562,46.92485428,97,238,88,948059.000000,0.587000,0.410000,0.003000,1.416000,1.764000,1.923000,0.507000
1899.38439941,21226.06640625,47.05433273,97,238,88,948059.000000,0.587000,0.410000,0.003000,1.416000,1.764000,1.923000,0.507000
1899.35681152,21225.67578125,46.79493332,97,238,88,948059.000000,0.587000,0.410000,0.003000,1.416000,1.764000,1.923000,0.507000
1899.36584473,21225.58203125,46.53469086,97,238,88,948059.000000,0.587000,0.410000,0.003000,1.416000,1.764000,1.923000,0.507000
1899.38305664,21226.06640625,46.92032623,97,238,88,948059.000000,0.587000,0.410000,0.003000,1.416000,1.764000,1.923000,0.507000
1899.32739258,21226.15820312,46.78824234,97,238,88,948059.000000,0.587000,0.410000,0.003000,1.416000,1.764000,1.923000,0.507000
1899.30847168,21226.44531250,46.77958298,97,238,88,948059.000000,0.587000,0.410000,0.003000,1.416000,1.764000,1.923000,0.507000
1899.33959961,21225.91796875,46.64521027,97,238,88,948059.000000,0.587000,0.410000,0.003000,1.416000,1.764000,1.923000,0.507000
1899.41992188,21225.67968750,47.12847900,97,238,88,948059.000000,0.587000,0.410000,0.003000,1.416000,1.764000,1.923000,0.507000
1899.34680176,21225.82226562,46.64561462,97,238,88,948059.000000,0.587000,0.410000,0.003000,1.416000,1.764000,1.923000,0.507000
1899.44995117,21225.58593750,47.10814667,97,238,88,948059.000000,0.587000,0.410000,0.003000,1.416000,1.764000,1.923000,0.507000
1899.33239746,21226.06250000,46.78674698,97,238,88,948059.000000,0.587000,0.410000,0.003000,1.416000,1.764000,1.923000,0.507000
1899.34436035,21225.91992188,46.55190659,97,238,88,948059.000000,0.587000,0.410000,0.003000,1.416000,1.764000,1.923000,0.507000
1899.34619141,21225.82031250,46.77347565,97,238,88,948059.000000,0.587000,0.410000,0.003000,1.416000,1.764000,1.923000,0.507000
1899.40820312,21225.67968750,47.01880646,97,238,88,948059.000000,0.587000,0.410000,0.003000,1.416000,1.764000,1.923000,0.507000
1899.41076660,21226.30664062,47.11306000,97,238,88,948059.000000,0.587000,0.410000,0.003000,1.416000,1.764000,1.923000,0.507000
1899.39099121,21226.44921875,47.10565567,97,238,88,948059.000000,0.587000,0.410000,0.003000,1.416000,1.764000,1.923000,0.507000
1899.35546875,21225.67578125,46.67039490,97,238,88,948059.000000,0.587000,0.410000,0.003000,1.416000,1.764000,1.923000,0.507000
1899.36279297,21225.58007812,46.66540146,97,238,88,948059.000000,0.587000,0.410000,0.003000,1.416000,1.764000,1.923000,0.507000
1899.41931152,21225.82617188,47.12557602,97,238,88,948059.000000,0.587000,0.410000,0.003000,1.416000,1.764000,1.923000,0.507000
1899.43981934,21225.82617188,47.11576080,97,238,88,948059.000000,0.587000,0.410000,0.003000,1.416000,1.764000,1.923000,0.507000
1899.31945801,21226.30273438,46.68006516,97,238,88,948059.000000,0.587000,0.410000,0.003000,1.416000,1.764000,1.923000,0.507000
1899.32287598,21226.30273438,46.54850006,97,238,88,948059.000000,0.587000,0.410000,0.003000,1.416000,1.764000,1.923000,0.507000
1899.41284180,21225.58398438,47.02002335,97,238,88,948059.000000,0.587000,0.410000,0.003000,1.416000,1.764000,1.923000,0.507000
1899.43225098,21225.92382812,47.11581802,97,238,88,948059.000000,0.587000,0.410000,0.003000,1.416000,1.764000,1.923000,0.507000
1899.35986328,21226.44726562,47.04832077,97,238,88,948059.000000,0.587000,0.410000,0.003000,1.416000,1.764000,1.923000,0.507000
1899.33203125,21226.06445312,46.66091156,97,238,88,948059.000000,0.587000,0.410000,0.003000,1.416000,1.764000,1.923000,0.507000
1899.31384277,21226.44531250,46.55793381,97,238,88,948059.000000,0.587000,0.410000,0.003000,1.416000,1.764000,1.923000,0.507000
1899.31298828,21226.44531250,46.64172745,97,238,88,948059.000000,0.587000,0.410000,0.003000,1.416000,1.764000,1.923000,0.507000
1899.37841797,21226.16210938,46.92034149,97,238,88,948059.000000,0.587000,0.410000,0.003000,1.416000,1.764000,1.923000,0.507000
1899.41455078,21225.58398438,46.87931061,97,238,88,948059.000000,0.587000,0.410000,0.003000,1.416000,1.764000,1.923000,0.507000
1899.36328125,21225.58007812,46.58199692,97,238,88,948059.000000,0.587000,0.410000,0.003000,1.416000,1.764000,1.923000,0.507000
1899.40527344,21225.72851562,46.90360260,97,238,88,948059.000000,0.587000,0.410000,0.003000,1.416000,1.764000,1.923000,0.507000
1899.33471680,21225.96679688,46.71032333,97,238,88,948059.000000,0.587000,0.410000,0.003000,1.416000,1.764000,1.923000,0.507000
1899.37182617,21226.25781250,46.92543030,97,238,88,948059.000000,0.587000,0.410000,0.003000,1.416000,1.764000,1.923000,0.507000
1899.39746094,21225.82421875,47.08898544,97,238,88,948059.000000,0.587000,0.410000,0.003000,1.416000,1.764000,1.923000,0.507000
1899.33923340,21225.91796875,46.68788147,97,238,88,948059.000000,0.587000,0.410000,0.003000,1.416000,1.764000,1.923000,0.507000
1899.41247559,21225.77539062,47.13101578,97,238,88,948059.000000,0.587000,0.410000,0.003000,1.416000,1.764000,1.923000,0.507000
1899.41296387,21225.58398438,46.92869949,97,238,88,948059.000000,0.587000,0.410000,0.003000,1.416000,1.764000,1.923000,0.507000
1899.35302734,21225.72460938,46.64897156,97,238,88,948059.000000,0.587000,0.410000,0.003000,1.416000,1.764000,1.923000,0.507000
1899.33715820,21225.96679688,46.83308411,97,238,88,948059.000000,0.587000,0.410000,0.003000,1.416000,1.764000,1.923000,0.507000
1899.45800781,21225.53710938,47.11457825,97,238,88,948059.000000,0.587000,0.410000,0.003000,1.416000,1.764000,1.923000,0.507000
1899.38842773,21225.97070312,47.01316833,97,238,88,948059.000000,0.587000,0.410000,0.003000,1.416000,1.764000,1.923000,0.507000
1899.39221191,21225.92187500,46.94414902,97,238,88,948059.000000,0.587000,0.410000,0.003000,1.416000,1.764000,1.923000,0.507000
1899.32299805,21226.20703125,46.77060699,97,238,88,948059.000000,0.587000,0.410000,0.003000,1.416000,1.764000,1.923000,0.507000
1899.38464355,21226.06640625,47.00856018,97,238,88,948059.000000,0.587000,0.410000,0.003000,1.416000,1.764000,1.923000,0.507000
1899.40124512,21225.77539062,46.88225937,97,238,88,948059.000000,0.587000,0.410000,0.003000,1.416000,1.764000,1.923000,0.507000
1899.33935547,21225.96679688,46.57498169,97,238,88,948059.000000,0.587000,0.410000,0.003000,1.416000,1.764000,1.923000,0.507000
1899.36877441,21225.53320312,46.55414581,97,238,88,948059.000000,0.587000,0.410000,0.003000,1.416000,1.764000,1.923000,0.507000
1899.37451172,21226.20898438,46.94710922,97,238,88,948059.000000,0.587000,0.410000,0.003000,1.416000,1.764000,1.923000,0.507000
1899.38232422,21225.67773438,46.85994720,97,238,88,948059.000000,0.587000,0.410000,0.003000,1.416000,1.764000,1.923000,0.507000
1899.33898926,21225.96679688,46.61667252,97,238,88,948059.000000,0.587000,0.410000,0.003000,1.416000,1.764000,1.923000,0.507000
1899.37414551,21226.20898438,46.90153503,97,238,88,948059.000000,0.587000,0.410000,0.003000,1.416000,1.764000,1.923000,0.507000
1899.40466309,21225.72656250,47.04306793,97,238,88,948059.000000,0.587000,0.410000,0.003000,1.416000,1.764000,1.923000,0.507000
1899.34936523,21225.82226562,46.51682281,97,238,88,948059.000000,0.587000,0.410000,0.003000,1.416000,1.764000,1.923000,0.507000
1899.32458496,21226.30273438,46.83719635,97,238,88,948059.000000,0.587000,0.410000,0.003000,1.416000,1.764000,1.923000,0.507000
1899.42199707,21225.97265625,47.11116409,97,238,88,948059.000000,0.587000,0.410000,0.003000,1.416000,1.764000,1.923000,0.507000
1899.32189941,21226.49414062,46.84177399,97,238,88,948059.000000,0.587000,0.410000,0.003000,1.416000,1.764000,1.923000,0.507000
1899.35534668,21226.49414062,47.02656174,97,238,88,948059.000000,0.587000,0.410000,0.003000,1.416000,1.764000,1.923000,0.507000
1899.40429688,21225.72851562,46.99676132,97,238,88,948059.000000,0.587000,0.410000,0.003000,1.416000,1.764000,1.923000,0.507000
1899.36840820,21226.30468750,46.94750595,97,238,88,948059.000000,0.587000,0.410000,0.003000,1.416000,1.764000,1.923000,0.507000
1899.40417480,21225.72851562,46.95104599,97,238,88,948059.000000,0.587000,0.410000,0.003000,1.416000,1.764000,1.923000,0.507000
1899.37780762,21226.16210938,46.87674713,97,238,88,948059.000000,0.587000,0.410000,0.003000,1.416000,1.764000,1.923000,0.507000
1899.42651367,21226.02148438,47.11348724,97,238,88,948059.000000,0.587000,0.410000,0.003000,1.416000,1.764000,1.923000,0.507000
1899.38415527,21226.25781250,47.12450790,97,238,88,948059.000000,0.587000,0.410000,0.003000,1.416000,1.764000,1.923000,0.507000
1899.36352539,21225.58007812,46.62283707,97,238,88,948059.000000,0.587000,0.410000,0.003000,1.416000,1.764000,1.923000,0.507000
1899.32861328,21226.06250000,46.75322342,97,238,88,948059.000000,0.587000,0.410000,0.003000,1.416000,1.764000,1.923000,0.507000
1899.38745117,21226.01757812,47.12364197,97,238,88,948059.000000,0.587000,0.410000,0.003000,1.416000,1.764000,1.923000,0.507000
1899.33984375,21225.91796875,46.81457138,97,238,88,948059.000000,0.587000,0.410000,0.003000,1.416000,1.764000,1.923000,0.507000
1899.34680176,21225.82226562,46.68737793,97,238,88,948059.000000,0.587000,0.410000,0.003000,1.416000,1.764000,1.923000,0.507000
1899.41369629,21225.58398438,47.06492233,97,238,88,948059.000000,0.587000,0.410000,0.003000,1.416000,1.764000,1.923000,0.507000
1899.37438965,21226.20898438,46.99327469,97,238,88,948059.000000,0.587000,0.410000,0.003000,1.416000,1.764000,1.923000,0.507000
1899.36999512,21226.30468750,47.08184433,97,238,88,948059.000000,0.587000,0.410000,0.003000,1.416000,1.764000,1.923000,0.507000
1899.30847168,21226.49218750,46.70461273,97,238,88,948059.000000,0.587000,0.410000,0.003000,1.416000,1.764000,1.923000,0.507000
1899.33837891,21226.01562500,46.50897598,97,238,88,948059.000000,0.587000,0.410000,0.003000,1.416000,1.764000,1.923000,0.507000
1899.33300781,21226.11132812,46.54996872,97,238,88,948059.000000,0.587000,0.410000,0.003000,1.416000,1.764000,1.923000,0.507000
1899.38806152,21225.97070312,46.87802505,97,238,88,948059.000000,0.587000,0.410000,0.003000,1.416000,1.764000,1.923000,0.507000
1899.36987305,21226.30468750,46.98974609,97,238,88,948059.000000,0.587000,0.410000,0.003000,1.416000,1.764000,1.923000,0.507000
1899.37634277,21226.20898438,47.03325653,97,238,88,948059.000000,0.587000,0.410000,0.003000,1.416000,1.764000,1.923000,0.507000
1899.36059570,21225.58007812,46.75629425,97,238,88,948059.000000,0.587000,0.410000,0.003000,1.416000,1.764000,1.923000,0.507000
1899.32299805,21226.30273438,46.50669861,97,238,88,948059.000000,0.587000,0.410000,0.003000,1.416000,1.764000,1.923000,0.507000
1899.31066895,21226.49414062,46.57481766,97,238,88,948059.000000,0.587000,0.410000,0.003000,1.416000,1.764000,1.923000,0.507000
1899.39392090,21225.53320312,46.87210083,97,238,88,948059.000000,0.587000,0.410000,0.003000,1.416000,1.764000,1.923000,0.507000
1899.39501953,21226.49804688,47.10626984,97,238,88,948059.000000,0.587000,0.410000,0.003000,1.416000,1.764000,1.923000,0.507000
1899.41076660,21225.63085938,47.04139328,97,238,88,948059.000000,0.587000,0.410000,0.003000,1.416000,1.764000,1.923000,0.507000
1899.39807129,21225.58203125,46.87672424,97,238,88,948059.000000,0.587000,0.410000,0.003000,1.416000,1.764000,1.923000,0.507000
1899.35314941,21225.72460938,46.81744003,97,238,88,948059.000000,0.587000,0.410000,0.003000,1.416000,1.764000,1.923000,0.507000
1899.35888672,21225.67578125,46.83284378,97,238,88,948059.000000,0.587000,0.410000,0.003000,1.416000,1.764000,1.923000,0.507000
1899.31628418,21226.39843750,46.50161743,97,238,88,948059.000000,0.587000,0.410000,0.003000,1.416000,1.764000,1.923000,0.507000
1899.39807129,21225.82421875,46.99452209,97,238,88,948059.000000,0.587000,0.410000,0.003000,1.416000,1.764000,1.923000,0.507000
1899.31738281,21226.30273438,46.81369781,97,238,88,948059.000000,0.587000,0.410000,0.003000,1.416000,1.764000,1.923000,0.507000
1899.38464355,21226.01757812,46.94621277,97,238,88,948059.000000,0.587000,0.410000,0.003000,1.416000,1.764000,1.923000,0.507000
1899.38439941,21226.01757812,46.90171814,97,238,88,948059.000000,0.587000,0.410000,0.003000,1.416000,1.764000,1.923000,0.507000
1899.35925293,21225.67773438,46.57889938,97,238,88,948059.000000,0.587000,0.410000,0.003000,1.416000,1.764000,1.923000,0.507000
1899.36376953,21225.58007812,46.83411407,97,238,88,948059.000000,0.587000,0.410000,0.003000,1.416000,1.764000,1.923000,0.507000
1899.32531738,21226.20703125,46.63832855,97,238,88,948059.000000,0.587000,0.410000,0.003000,1.416000,1.764000,1.923000,0.507000
1899.34277344,21225.91992188,46.51451492,97,238,88,948059.000000,0.587000,0.410000,0.003000,1.416000,1.764000,1.923000,0.507000
1899.38745117,21226.01757812,47.07728195,97,238,88,948059.000000,0.587000,0.410000,0.003000,1.416000,1.764000,1.923000,0.507000
1899.35559082,21225.72460938,46.52020645,97,238,88,948059.000000,0.587000,0.410000,0.003000,1.416000,1.764000,1.923000,0.507000
1899.36523438,21225.53320312,46.68619919,97,238,88,948059.000000,0.587000,0.410000,0.003000,1.416000,1.764000,1.923000,0.507000
1899.38256836,21226.06640625,46.87547302,97,238,88,948059.000000,0.587000,0.410000,0.003000,1.416000,1.764000,1.923000,0.507000
1899.31701660,21226.39843750,46.83471298,97,238,88,948059.000000,0.587000,0.410000,0.003000,1.416000,1.764000,1.923000,0.507000
1899.40124512,21225.77539062,47.01831436,97,238,88,948059.000000,0.587000,0.410000,0.003000,1.416000,1.764000,1.923000,0.507000
1899.37341309,21226.25781250,47.05977631,97,238,88,948059.000000,0.587000,0.410000,0.003000,1.416000,1.764000,1.923000,0.507000
1899.35363770,21225.72460938,46.77385330,97,238,88,948059.000000,0.587000,0.410000,0.003000,1.416000,1.764000,1.923000,0.507000
1899.41174316,21225.63085938,46.94748688,97,238,88,948059.000000,0.587000,0.410000,0.003000,1.416000,1.764000,1.923000,0.507000
1899.33374023,21226.06445312,46.57479095,97,238,88,948059.000000,0.587000,0.410000,0.003000,1.416000,1.764000,1.923000,0.507000
1899.36596680,21225.53320312,46.64256668,97,238,88,948059.000000,0.587000,0.410000,0.003000,1.416000,1.764000,1.923000,0.507000
1899.38659668,21225.97070312,46.92537689,97,238,88,948059.000000,0.587000,0.410000,0.003000,1.416000,1.764000,1.923000,0.507000
1899.32263184,21226.25585938,46.61940002,97,238,88,948059.000000,0.587000,0.410000,0.003000,1.416000,1.764000,1.923000,0.507000
1899.32775879,21226.35156250,46.84205627,97,238,88,948059.000000,0.587000,0.410000,0.003000,1.416000,1.764000,1.923000,0.507000
1899.41723633,21225.53515625,46.94498062,97,238,88,948059.000000,0.587000,0.410000,0.003000,1.416000,1.764000,1.923000,0.507000
1899.39050293,21226.30664062,47.12082672,97,238,88,948059.000000,0.587000,0.410000,0.003000,1.416000,1.764000,1.923000,0.507000
1899.32958984,21226.11132812,46.80981064,97,238,88,948059.000000,0.587000,0.410000,0.003000,1.416000,1.764000,1.923000,0.507000
1899.33447266,21226.01562500,46.68167496,97,238,88,948059.000000,0.587000,0.410000,0.003000,1.416000,1.764000,1.923000,0.507000
1899.36975098,21225.53320312,46.51050949,97,238,88,948059.000000,0.587000,0.410000,0.003000,1.416000,1.764000,1.923000,0.507000
1899.34948730,21225.77343750,46.71202469,97,238,88,948059.000000,0.587000,0.410000,0.003000,1.416000,1.764000,1.923000,0.507000
1899.36181641,21226.40039062,46.98631668,97,238,88,948059.000000,0.587000,0.410000,0.003000,1.416000,1.764000,1.923000,0.507000
1899.34558105,21225.77343750,46.76292801,97,238,88,948059.000000,0.587000,0.410000,0.003000,1.416000,1.764000,1.923000,0.507000
1899.32482910,21226.20703125,46.51695251,97,238,88,948059.000000,0.587000,0.410000,0.003000,1.416000,1.764000,1.923000,0.507000
1899.38244629,21226.40039062,47.11825943,97,238,88,948059.000000,0.587000,0.410000,0.003000,1.416000,1.764000,1.923000,0.507000
1899.39123535,21225.92187500,46.99318695,97,238,88,948059.000000,0.587000,0.410000,0.003000,1.416000,1.764000,1.923000,0.507000
1899.32507324,21226.15820312,46.75022888,97,238,88,948059.000000,0.587000,0.410000,0.003000,1.416000,1.764000,1.923000,0.507000
1899.41540527,21225.53515625,47.04101181,97,238,88,948059.000000,0.587000,0.410000,0.003000,1.416000,1.764000,1.923000,0.507000
1899.36254883,21225.58007812,46.70835495,97,238,88,948059.000000,0.587000,0.410000,0.003000,1.416000,1.764000,1.923000,0.507000
1899.33374023,21225.96679688,46.75595856,97,238,88,948059.000000,0.587000,0.410000,0.003000,1.416000,1.764000,1.923000,0.507000
1899.37207031,21226.25781250,47.01578140,97,238,88,948059.000000,0.587000,0.410000,0.003000,1.416000,1.764000,1.923000,0.507000
1899.31469727,21226.39843750,46.71126938,97,238,88,948059.000000,0.587000,0.410000,0.003000,1.416000,1.764000,1.923000,0.507000
1899.43737793,21225.53710938,47.12509537,97,238,88,948059.000000,0.587000,0.410000,0.003000,1.416000,1.764000,1.923000,0.507000
1899.32702637,21226.15820312,46.70310211,97,238,88,948059.000000,0.587000,0.410000,0.003000,1.416000,1.764000,1.923000,0.507000
1899.32031250,21226.30273438,46.63622284,97,238,88,948059.000000,0.587000,0.410000,0.003000,1.416000,1.764000,1.923000,0.507000
1899.38793945,21225.77539062,46.87317657,97,238,88,948059.000000,0.587000,0.410000,0.003000,1.416000,1.764000,1.923000,0.507000
1899.35949707,21226.40039062,46.90206146,97,238,88,948059.000000,0.587000,0.410000,0.003000,1.416000,1.764000,1.923000,0.507000
1899.32666016,21226.16015625,46.62104797,97,238,88,948059.000000,0.587000,0.410000,0.003000,1.416000,1.764000,1.923000,0.507000
1899.33312988,21226.06445312,46.61633301,97,238,88,948059.000000,0.587000,0.410000,0.003000,1.416000,1.764000,1.923000,0.507000
1899.36413574,21226.40039062,47.07390213,97,238,88,948059.000000,0.587000,0.410000,0.003000,1.416000,1.764000,1.923000,0.507000
1899.35070801,21225.77343750,46.58419418,97,238,88,948059.000000,0.587000,0.410000,0.003000,1.416000,1.764000,1.923000,0.507000
1899.32885742,21226.16015625,46.57340240,97,238,88,948059.000000,0.587000,0.410000,0.003000,1.416000,1.764000,1.923000,0.507000
1899.35009766,21225.77343750,46.79560089,97,238,88,948059.000000,0.587000,0.410000,0.003000,1.416000,1.764000,1.923000,0.507000
1899.35168457,21225.77343750,46.50004196,97,238,88,948059.000000,0.587000,0.410000,0.003000,1.416000,1.764000,1.923000,0.507000
1899.41723633,21226.21289062,47.11123276,97,238,88,948059.000000,0.587000,0.410000,0.003000,1.416000,1.764000,1.923000,0.507000
1899.37121582,21226.25781250,46.88186646,97,238,88,948059.000000,0.587000,0.410000,0.003000,1.416000,1.764000,1.923000,0.507000
1899.32275391,21226.25390625,46.70189285,97,238,88,948059.000000,0.587000,0.410000,0.003000,1.416000,1.764000,1.923000,0.507000
1899.41223145,21225.63085938,46.90036774,97,238,88,948059.000000,0.587000,0.410000,0.003000,1.416000,1.764000,1.923000,0.507000
1899.34887695,21225.77343750,46.62906265,97,238,88,948059.000000,0.587000,0.410000,0.003000,1.416000,1.764000,1.923000,0.507000
1899.36083984,21226.40039062,46.94373322,97,238,88,948059.000000,0.587000,0.410000,0.003000,1.416000,1.764000,1.923000,0.507000
1899.41796875,21225.53515625,46.89770126,97,238,88,948059.000000,0.587000,0.410000,0.003000,1.416000,1.764000,1.923000,0.507000
1899.33422852,21226.01562500,46.81119537,97,238,88,948059.000000,0.587000,0.410000,0.003000,1.416000,1.764000,1.923000,0.507000
1899.38720703,21226.16210938,47.12829971,97,238,88,948059.000000,0.587000,0.410000,0.003000,1.416000,1.764000,1.923000,0.507000
1899.35729980,21225.67773438,46.62585449,97,238,88,948059.000000,0.587000,0.410000,0.003000,1.416000,1.764000,1.923000,0.507000
1899.32263184,21226.25390625,46.83057785,97,238,88,948059.000000,0.587000,0.410000,0.003000,1.416000,1.764000,1.923000,0.507000
1899.33203125,21226.06250000,46.83196259,97,238,88,948059.000000,0.587000,0.410000,0.003000,1.416000,1.764000,1.923000,0.507000
1899.32678223,21226.15820312,46.83151627,97,238,88,948059.000000,0.587000,0.410000,0.003000,1.416000,1.764000,1.923000,0.507000
1899.32763672,21226.20703125,46.55130005,97,238,88,948059.000000,0.587000,0.410000,0.003000,1.416000,1.764000,1.923000,0.507000
1899.32592773,21226.20703125,46.67921066,97,238,88,948059.000000,0.587000,0.410000,0.003000,1.416000,1.764000,1.923000,0.507000
1899.32373047,21226.25585938,46.57478333,97,238,88,948059.000000,0.587000,0.410000,0.003000,1.416000,1.764000,1.923000,0.507000
1899.36340332,21225.53125000,46.77506638,97,238,88,948059.000000,0.587000,0.410000,0.003000,1.416000,1.764000,1.923000,0.507000
1899.38916016,21225.96875000,47.05826187,97,238,88,948059.000000,0.587000,0.410000,0.003000,1.416000,1.764000,1.923000,0.507000
1899.31091309,21226.49414062,46.53254700,97,238,88,948059.000000,0.587000,0.410000,0.003000,1.416000,1.764000,1.923000,0.507000
1899.39477539,21226.21093750,47.12667084,97,238,88,948059.000000,0.587000,0.410000,0.003000,1.416000,1.764000,1.923000,0.507000
1899.34631348,21225.82031250,46.81706619,97,238,88,948059.000000,0.587000,0.410000,0.003000,1.416000,1.764000,1.923000,0.507000
1899.31262207,21226.39843750,46.75966263,97,238,88,948059.000000,0.587000,0.410000,0.003000,1.416000,1.764000,1.923000,0.507000
1899.36279297,21225.62890625,46.51598740,97,238,88,948059.000000,0.587000,0.410000,0.003000,1.416000,1.764000,1.923000,0.507000
1899.35729980,21225.67578125,46.75132751,97,238,88,948059.000000,0.587000,0.410000,0.003000,1.416000,1.764000,1.923000,0.507000
1899.35034180,21225.72460938,46.69586945,97,238,88,948059.000000,0.587000,0.410000,0.003000,1.416000,1.764000,1.923000,0.507000
1899.32348633,21226.25585938,46.53449631,97,238,88,948059.000000,0.587000,0.410000,0.003000,1.416000,1.764000,1.923000,0.507000
1899.35473633,21226.49609375,46.88952637,97,238,88,948059.000000,0.587000,0.410000,0.003000,1.416000,1.764000,1.923000,0.507000
1899.39282227,21226.06640625,47.12702179,97,238,88,948059.000000,0.587000,0.410000,0.003000,1.416000,1.764000,1.923000,0.507000
1899.39660645,21225.82421875,46.95252991,97,238,88,948059.000000,0.587000,0.410000,0.003000,1.416000,1.764000,1.923000,0.507000
1899.32434082,21226.20703125,46.81117249,97,238,88,948059.000000,0.587000,0.410000,0.003000,1.416000,1.764000,1.923000,0.507000
1899.40161133,21225.77539062,46.92629242,97,238,88,948059.000000,0.587000,0.410000,0.003000,1.416000,1.764000,1.923000,0.507000
1899.41052246,21225.63085938,46.99697876,97,238,88,948059.000000,0.587000,0.410000,0.003000,1.416000,1.764000,1.923000,0.507000
1899.37768555,21226.16210938,47.06051254,97,238,88,948059.000000,0.587000,0.410000,0.003000,1.416000,1.764000,1.923000,0.507000
1899.30957031,21226.49218750,46.83108902,97,238,88,948059.000000,0.587000,0.410000,0.003000,1.416000,1.764000,1.923000,0.507000
1899.33715820,21226.01562500,46.55089188,97,238,88,948059.000000,0.587000,0.410000,0.003000,1.416000,1.764000,1.923000,0.507000
1899.32983398,21226.11132812,46.76775742,97,238,88,948059.000000,0.587000,0.410000,0.003000,1.416000,1.764000,1.923000,0.507000
1899.41564941,21225.53515625,46.99544525,97,238,88,948059.000000,0.587000,0.410000,0.003000,1.416000,1.764000,1.923000,0.507000
1899.33374023,21226.01562500,46.76934433,97,238,88,948059.000000,0.587000,0.410000,0.003000,1.416000,1.764000,1.923000,0.507000
1899.35437012,21225.72460938,46.56240082,97,238,88,948059.000000,0.587000,0.410000,0.003000,1.416000,1.764000,1.923000,0.507000
1899.39367676,21225.92187500,47.12667465,97,238,88,948059.000000,0.587000,0.410000,0.003000,1.416000,1.764000,1.923000,0.507000
1899.40173340,21225.77539062,47.06438065,97,238,88,948059.000000,0.587000,0.410000,0.003000,1.416000,1.764000,1.923000,0.507000
1899.33410645,21226.01562500,46.64161682,97,238,88,948059.000000,0.587000,0.410000,0.003000,1.416000,1.764000,1.923000,0.507000
1899.39782715,21225.97070312,47.12813950,97,238,88,948059.000000,0.587000,0.410000,0.003000,1.416000,1.764000,1.923000,0.507000
1899.35437012,21226.49609375,46.93593979,97,238,88,948059.000000,0.587000,0.410000,0.003000,1.416000,1.764000,1.923000,0.507000
1899.33081055,21226.11132812,46.63814163,97,238,88,948059.000000,0.587000,0.410000,0.003000,1.416000,1.764000,1.923000,0.507000
1899.31591797,21226.39843750,46.58325958,97,238,88,948059.000000,0.587000,0.410000,0.003000,1.416000,1.764000,1.923000,0.507000
1899.39904785,21225.72656250,46.87526321,97,238,88,948059.000000,0.587000,0.410000,0.003000,1.416000,1.764000,1.923000,0.507000
1899.35644531,21226.49414062,47.06910706,97,238,88,948059.000000,0.587000,0.410000,0.003000,1.416000,1.764000,1.923000,0.507000
1899.36462402,21225.53125000,46.81586838,97,238,88,948059.000000,0.587000,0.410000,0.003000,1.416000,1.764000,1.923000,0.507000
1899.34338379,21225.86914062,46.74972153,97,238,88,948059.000000,0.587000,0.410000,0.003000,1.416000,1.764000,1.923000,0.507000
1899.37048340,21225.91992188,46.86703110,97,238,88,948059.000000,0.587000,0.410000,0.003000,1.416000,1.764000,1.923000,0.507000
1899.31958008,21226.30273438,46.72152710,97,238,88,948059.000000,0.587000,0.410000,0.003000,1.416000,1.764000,1.923000,0.507000
1899.37280273,21226.11328125,46.87466431,97,238,88,948059.000000,0.587000,0.410000,0.003000,1.416000,1.764000,1.923000,0.507000
1899.35644531,21226.44726562,46.96585846,97,238,88,948059.000000,0.587000,0.410000,0.003000,1.416000,1.764000,1.923000,0.507000
1899.37976074,21226.11328125,46.94604111,97,238,88,948059.000000,0.587000,0.410000,0.003000,1.416000,1.764000,1.923000,0.507000
1899.36083984,21225.62890625,46.76985931,97,238,88,948059.000000,0.587000,0.410000,0.003000,1.416000,1.764000,1.923000,0.507000
1899.38623047,21225.92187500,46.87096024,97,238,88,948059.000000,0.587000,0.410000,0.003000,1.416000,1.764000,1.923000,0.507000
1899.34533691,21226.49414062,46.87040710,97,238,88,948059.000000,0.587000,0.410000,0.003000,1.416000,1.764000,1.923000,0.507000
1899.39941406,21225.77539062,47.11793137,97,238,88,948059.000000,0.587000,0.410000,0.003000,1.416000,1.764000,1.923000,0.507000
1899.38012695,21226.11328125,46.99079895,97,238,88,948059.000000,0.587000,0.410000,0.003000,1.416000,1.764000,1.923000,0.507000
1899.34387207,21225.86914062,46.79213715,97,238,88,948059.000000,0.587000,0.410000,0.003000,1.416000,1.764000,1.923000,0.507000
1899.35644531,21226.49609375,46.97705841,97,238,88,948059.000000,0.587000,0.410000,0.003000,1.416000,1.764000,1.923000,0.507000
1899.38232422,21225.72656250,46.87499619,97,238,88,948059.000000,0.587000,0.410000,0.003000,1.416000,1.764000,1.923000,0.507000
1899.32824707,21226.06250000,46.71273804,97,238,88,948059.000000,0.587000,0.410000,0.003000,1.416000,1.764000,1.923000,0.507000
1899.33618164,21226.01562500,46.59500504,97,238,88,948059.000000,0.587000,0.410000,0.003000,1.416000,1.764000,1.923000,0.507000
1899.34436035,21225.82031250,46.73648071,97,238,88,948059.000000,0.587000,0.410000,0.003000,1.416000,1.764000,1.923000,0.507000
1899.40405273,21226.01953125,47.12630463,97,238,88,948059.000000,0.587000,0.410000,0.003000,1.416000,1.764000,1.923000,0.507000
1899.31225586,21226.44531250,46.52028656,97,238,88,948059.000000,0.587000,0.410000,0.003000,1.416000,1.764000,1.923000,0.507000
1899.31274414,21226.44531250,46.60010529,97,238,88,948059.000000,0.587000,0.410000,0.003000,1.416000,1.764000,1.923000,0.507000
1899.35327148,21226.40039062,46.87239075,97,238,88,948059.000000,0.587000,0.410000,0.003000,1.416000,1.764000,1.923000,0.507000
1899.32849121,21226.11132812,46.72741699,97,238,88,948059.000000,0.587000,0.410000,0.003000,1.416000,1.764000,1.923000,0.507000
1899.38049316,21226.11523438,46.89953613,97,238,88,948059.000000,0.587000,0.410000,0.003000,1.416000,1.764000,1.923000,0.507000
1899.38208008,21226.11328125,47.12625122,97,238,88,948059.000000,0.587000,0.410000,0.003000,1.416000,1.764000,1.923000,0.507000
1899.33825684,21226.39843750,46.86874771,97,238,88,948059.000000,0.587000,0.410000,0.003000,1.416000,1.764000,1.923000,0.507000
1899.35461426,21225.72460938,46.60322952,97,238,88,948059.000000,0.587000,0.410000,0.003000,1.416000,1.764000,1.923000,0.507000
1899.31408691,21226.34960938,46.78865051,97,238,88,948059.000000,0.587000,0.410000,0.003000,1.416000,1.764000,1.923000,0.507000
1899.33227539,21226.01562500,46.72948456,97,238,88,948059.000000,0.587000,0.410000,0.003000,1.416000,1.764000,1.923000,0.507000
1899.37329102,21226.30468750,47.12088394,97,238,88,948059.000000,0.587000,0.410000,0.003000,1.416000,1.764000,1.923000,0.507000
1899.36889648,21226.20898438,46.87223053,97,238,88,948059.000000,0.587000,0.410000,0.003000,1.416000,1.764000,1.923000,0.507000
1899.37609863,21225.77343750,46.85920334,97,238,88,948059.000000,0.587000,0.410000,0.003000,1.416000,1.764000,1.923000,0.507000
1899.34375000,21225.87109375,46.66507339,97,238,88,948059.000000,0.587000,0.410000,0.003000,1.416000,1.764000,1.923000,0.507000
1899.39550781,21225.87304688,47.01343155,97,238,88,948059.000000,0.587000,0.410000,0.003000,1.416000,1.764000,1.923000,0.507000
1899.41577148,21225.53515625,47.08779907,97,238,88,948059.000000,0.587000,0.410000,0.003000,1.416000,1.764000,1.923000,0.507000
1899.37585449,21225.58203125,46.84690857,97,238,88,948059.000000,0.587000,0.410000,0.003000,1.416000,1.764000,1.923000,0.507000
1899.33703613,21225.96679688,46.78899765,97,238,88,948059.000000,0.587000,0.410000,0.003000,1.416000,1.764000,1.923000,0.507000
1899.33837891,21225.91796875,46.60588455,97,238,88,948059.000000,0.587000,0.410000,0.003000,1.416000,1.764000,1.923000,0.507000
1899.37341309,21225.96875000,46.87105560,97,238,88,948059.000000,0.587000,0.410000,0.003000,1.416000,1.764000,1.923000,0.507000
1899.30993652,21226.49414062,46.61630630,97,238,88,948059.000000,0.587000,0.410000,0.003000,1.416000,1.764000,1.923000,0.507000
1899.39501953,21225.87304688,46.97051239,97,238,88,948059.000000,0.587000,0.410000,0.003000,1.416000,1.764000,1.923000,0.507000
1899.36657715,21226.35351562,47.05535126,97,238,88,948059.000000,0.587000,0.410000,0.003000,1.416000,1.764000,1.923000,0.507000
1899.33544922,21226.11132812,46.83899689,97,238,88,948059.000000,0.587000,0.410000,0.003000,1.416000,1.764000,1.923000,0.507000
1899.35681152,21226.44726562,46.87323761,97,238,88,948059.000000,0.587000,0.410000,0.003000,1.416000,1.764000,1.923000,0.507000
1899.34082031,21226.01562500,46.83715057,97,238,88,948059.000000,0.587000,0.410000,0.003000,1.416000,1.764000,1.923000,0.507000
1899.38647461,21226.01757812,47.03262711,97,238,88,948059.000000,0.587000,0.410000,0.003000,1.416000,1.764000,1.923000,0.507000
1899.37597656,21226.20898438,47.12963104,97,238,88,948059.000000,0.587000,0.410000,0.003000,1.416000,1.764000,1.923000,0.507000
1899.40734863,21225.67968750,46.97469711,97,238,88,948059.000000,0.587000,0.410000,0.003000,1.416000,1.764000,1.923000,0.507000
1899.33435059,21225.96679688,46.66923904,97,238,88,948059.000000,0.587000,0.410000,0.003000,1.416000,1.764000,1.923000,0.507000
1899.40466309,21225.63085938,46.87499619,97,238,88,948059.000000,0.587000,0.410000,0.003000,1.416000,1.764000,1.923000,0.507000
1899.40600586,21225.67968750,46.88834381,97,238,88,948059.000000,0.587000,0.410000,0.003000,1.416000,1.764000,1.923000,0.507000
1899.35961914,21226.44726562,47.09701157,97,238,88,948059.000000,0.587000,0.410000,0.003000,1.416000,1.764000,1.923000,0.507000
1899.36022949,21225.62890625,46.72850418,97,238,88,948059.000000,0.587000,0.410000,0.003000,1.416000,1.764000,1.923000,0.507000
1899.37438965,21226.49609375,47.11601257,97,238,88,948059.000000,0.587000,0.410000,0.003000,1.416000,1.764000,1.923000,0.507000
1899.31213379,21226.44531250,46.68581009,97,238,88,948059.000000,0.587000,0.410000,0.003000,1.416000,1.764000,1.923000,0.507000
1899.34582520,21226.20703125,46.84264755,97,238,88,948059.000000,0.587000,0.410000,0.003000,1.416000,1.764000,1.923000,0.507000
1899.37646484,21226.16210938,47.11101532,97,238,88,948059.000000,0.587000,0.410000,0.003000,1.416000,1.764000,1.923000,0.507000
1899.33288574,21226.11132812,46.50970078,97,238,88,948059.000000,0.587000,0.410000,0.003000,1.416000,1.764000,1.923000,0.507000
1899.33093262,21226.39843750,46.84283447,97,238,88,948059.000000,0.587000,0.410000,0.003000,1.416000,1.764000,1.923000,0.507000
1899.35693359,21226.44726562,47.00959015,97,238,88,948059.000000,0.587000,0.410000,0.003000,1.416000,1.764000,1.923000,0.507000
1899.34375000,21225.87109375,46.54069519,97,238,88,948059.000000,0.587000,0.410000,0.003000,1.416000,1.764000,1.923000,0.507000
1899.34082031,21226.16015625,46.84022522,97,238,88,948059.000000,0.587000,0.410000,0.003000,1.416000,1.764000,1.923000,0.507000
1899.36572266,21226.35351562,46.96588135,97,238,88,948059.000000,0.587000,0.410000,0.003000,1.416000,1.764000,1.923000,0.507000
1899.36535645,21225.77343750,46.84266663,97,238,88,948059.000000,0.587000,0.410000,0.003000,1.416000,1.764000,1.923000,0.507000
1899.30944824,21226.49414062,46.66004944,97,238,88,948059.000000,0.587000,0.410000,0.003000,1.416000,1.764000,1.923000,0.507000
1899.31066895,21226.44531250,46.73097610,97,238,88,948059.000000,0.587000,0.410000,0.003000,1.416000,1.764000,1.923000,0.507000
1899.42651367,21225.72851562,47.12498474,97,238,88,948059.000000,0.587000,0.410000,0.003000,1.416000,1.764000,1.923000,0.507000
1899.37292480,21226.25781250,46.96749496,97,238,88,948059.000000,0.587000,0.410000,0.003000,1.416000,1.764000,1.923000,0.507000
1899.38354492,21226.06640625,46.96460342,97,238,88,948059.000000,0.587000,0.410000,0.003000,1.416000,1.764000,1.923000,0.507000
1899.32141113,21226.25390625,46.79168701,97,238,88,948059.000000,0.587000,0.410000,0.003000,1.416000,1.764000,1.923000,0.507000
1899.40100098,21225.82421875,47.12734222,97,238,88,948059.000000,0.587000,0.410000,0.003000,1.416000,1.764000,1.923000,0.507000
1899.30847168,21226.44531250,46.82388306,97,238,88,948059.000000,0.587000,0.410000,0.003000,1.416000,1.764000,1.923000,0.507000
1899.32189941,21226.30273438,46.58995056,97,238,88,948059.000000,0.587000,0.410000,0.003000,1.416000,1.764000,1.923000,0.507000
1899.39343262,21225.82421875,46.87186050,97,238,88,948059.000000,0.587000,0.410000,0.003000,1.416000,1.764000,1.923000,0.507000
1899.32592773,21226.20703125,46.59489059,97,238,88,948059.000000,0.587000,0.410000,0.003000,1.416000,1.764000,1.923000,0.507000
1899.31555176,21226.34960938,46.82923126,97,238,88,948059.000000,0.587000,0.410000,0.003000,1.416000,1.764000,1.923000,0.507000
1899.34399414,21225.87109375,46.58102417,97,238,88,948059.000000,0.587000,0.410000,0.003000,1.416000,1.764000,1.923000,0.507000
1899.31823730,21226.35156250,46.65172195,97,238,88,948059.000000,0.587000,0.410000,0.003000,1.416000,1.764000,1.923000,0.507000
1899.35778809,21225.87109375,46.84294128,97,238,88,948059.000000,0.587000,0.410000,0.003000,1.416000,1.764000,1.923000,0.507000
1899.36901855,21225.82226562,46.84555817,97,238,88,948059.000000,0.587000,0.410000,0.003000,1.416000,1.764000,1.923000,0.507000
1899.40698242,21225.67968750,47.06745529,97,238,88,948059.000000,0.587000,0.410000,0.003000,1.416000,1.764000,1.923000,0.507000
1899.37670898,21226.16210938,46.97075272,97,238,88,948059.000000,0.587000,0.410000,0.003000,1.416000,1.764000,1.923000,0.507000
1899.40063477,21226.35546875,47.10654068,97,238,88,948059.000000,0.587000,0.410000,0.003000,1.416000,1.764000,1.923000,0.507000
1899.30322266,21226.49218750,46.80281830,97,238,88,948059.000000,0.587000,0.410000,0.003000,1.416000,1.764000,1.923000,0.507000
1899.36230469,21225.91992188,46.84350967,97,238,88,948059.000000,0.587000,0.410000,0.003000,1.416000,1.764000,1.923000,0.507000
1899.33081055,21226.20703125,46.83840179,97,238,88,948059.000000,0.587000,0.410000,0.003000,1.416000,1.764000,1.923000,0.507000
1899.41418457,21225.58398438,46.97008133,97,238,88,948059.000000,0.587000,0.410000,0.003000,1.416000,1.764000,1.923000,0.507000
1899.39343262,21225.87304688,46.92795944,97,238,88,948059.000000,0.587000,0.410000,0.003000,1.416000,1.764000,1.923000,0.507000
1899.36547852,21226.35351562,46.87702179,97,238,88,948059.000000,0.587000,0.410000,0.003000,1.416000,1.764000,1.923000,0.507000
1899.33825684,21225.96679688,46.53591919,97,238,88,948059.000000,0.587000,0.410000,0.003000,1.416000,1.764000,1.923000,0.507000
1899.36169434,21226.30468750,46.87355804,97,238,88,948059.000000,0.587000,0.410000,0.003000,1.416000,1.764000,1.923000,0.507000
1899.41113281,21225.63085938,47.08794785,97,238,88,948059.000000,0.587000,0.410000,0.003000,1.416000,1.764000,1.923000,0.507000
1899.32116699,21226.35156250,46.52102280,97,238,88,948059.000000,0.587000,0.410000,0.003000,1.416000,1.764000,1.923000,0.507000
1899.41040039,21225.53515625,46.87362671,97,238,88,948059.000000,0.587000,0.410000,0.003000,1.416000,1.764000,1.923000,0.507000
1899.34411621,21225.86914062,46.83358765,97,238,88,948059.000000,0.587000,0.410000,0.003000,1.416000,1.764000,1.923000,0.507000
1899.31616211,21226.34960938,46.74213409,97,238,88,948059.000000,0.587000,0.410000,0.003000,1.416000,1.764000,1.923000,0.507000
1899.35131836,21225.96679688,46.84027100,97,238,88,948059.000000,0.587000,0.410000,0.003000,1.416000,1.764000,1.923000,0.507000
1899.34277344,21225.86914062,46.70855713,97,238,88,948059.000000,0.587000,0.410000,0.003000,1.416000,1.764000,1.923000,0.507000
1899.35974121,21225.62890625,46.81672668,97,238,88,948059.000000,0.587000,0.410000,0.003000,1.416000,1.764000,1.923000,0.507000
1899.36682129,21225.53320312,46.59841156,97,238,88,948059.000000,0.587000,0.410000,0.003000,1.416000,1.764000,1.923000,0.507000
1899.38195801,21226.11328125,47.03311920,97,238,88,948059.000000,0.587000,0.410000,0.003000,1.416000,1.764000,1.923000,0.507000
1899.37121582,21225.67773438,46.84409332,97,238,88,948059.000000,0.587000,0.410000,0.003000,1.416000,1.764000,1.923000,0.507000
1899.31066895,21226.39648438,46.80646133,97,238,88,948059.000000,0.587000,0.410000,0.003000,1.416000,1.764000,1.923000,0.507000
1899.31799316,21226.34960938,46.69416809,97,238,88,948059.000000,0.587000,0.410000,0.003000,1.416000,1.764000,1.923000,0.507000
1899.32214355,21226.25390625,46.66069031,97,238,88,948059.000000,0.587000,0.410000,0.003000,1.416000,1.764000,1.923000,0.507000
1899.38647461,21225.53320312,46.84642029,97,238,88,948059.000000,0.587000,0.410000,0.003000,1.416000,1.764000,1.923000,0.507000
1899.36901855,21226.44726562,47.11752319,97,238,88,948059.000000,0.587000,0.410000,0.003000,1.416000,1.764000,1.923000,0.507000
1899.34790039,21225.77343750,46.67314911,97,238,88,948059.000000,0.587000,0.410000,0.003000,1.416000,1.764000,1.923000,0.507000
1899.37634277,21225.82226562,46.87091064,97,238,88,948059.000000,0.587000,0.410000,0.003000,1.416000,1.764000,1.923000,0.507000
1899.35290527,21225.77343750,46.53813553,97,238,88,948059.000000,0.587000,0.410000,0.003000,1.416000,1.764000,1.923000,0.507000
1899.31884766,21226.44531250,46.83950043,97,238,88,948059.000000,0.587000,0.410000,0.003000,1.416000,1.764000,1.923000,0.507000
1899.36450195,21225.53320312,46.73086929,97,238,88,948059.000000,0.587000,0.410000,0.003000,1.416000,1.764000,1.923000,0.507000
1899.36145020,21225.72460938,46.84004974,97,238,88,948059.000000,0.587000,0.410000,0.003000,1.416000,1.764000,1.923000,0.507000
1899.37097168,21225.53320312,46.84335327,97,238,88,948059.000000,0.587000,0.410000,0.003000,1.416000,1.764000,1.923000,0.507000
1899.39538574,21225.87304688,47.06115341,97,238,88,948059.000000,0.587000,0.410000,0.003000,1.416000,1.764000,1.923000,0.507000
1899.35888672,21225.62890625,46.64877319,97,238,88,948059.000000,0.587000,0.410000,0.003000,1.416000,1.764000,1.923000,0.507000
1899.40405273,21225.72656250,47.09005356,97,238,88,948059.000000,0.587000,0.410000,0.003000,1.416000,1.764000,1.923000,0.507000
1899.32946777,21226.11132812,46.68281937,97,238,88,948059.000000,0.587000,0.410000,0.003000,1.416000,1.764000,1.923000,0.507000
1899.38122559,21226.11328125,47.08008575,97,238,88,948059.000000,0.587000,0.410000,0.003000,1.416000,1.764000,1.923000,0.507000
1899.34082031,21226.30273438,46.84028244,97,238,88,948059.000000,0.587000,0.410000,0.003000,1.416000,1.764000,1.923000,0.507000
1899.36279297,21226.40039062,47.02994919,97,238,88,948059.000000,0.587000,0.410000,0.003000,1.416000,1.764000,1.923000,0.507000
1899.30725098,21226.49218750,46.75117493,97,238,88,948059.000000,0.587000,0.410000,0.003000,1.416000,1.764000,1.923000,0.507000
1899.39428711,21225.87304688,46.88090897,97,238,88,948059.000000,0.587000,0.410000,0.003000,1.416000,1.764000,1.923000,0.507000
1899.31982422,21226.35156250,46.56581116,97,238,88,948059.000000,0.587000,0.410000,0.003000,1.416000,1.764000,1.923000,0.507000
1899.36499023,21226.35351562,47.01420212,97,238,88,948059.000000,0.587000,0.410000,0.003000,1.416000,1.764000,1.923000,0.507000
1899.36035156,21225.62890625,46.68680573,97,238,88,948059.000000,0.587000,0.410000,0.003000,1.416000,1.764000,1.923000,0.507000
1899.40283203,21225.77539062,46.96950531,97,238,88,948059.000000,0.587000,0.410000,0.003000,1.416000,1.764000,1.923000,0.507000
1899.31872559,21226.35156250,46.60800552,97,238,88,948059.000000,0.587000,0.410000,0.003000,1.416000,1.764000,1.923000,0.507000
1899.37329102,21226.25781250,47.10558701,97,238,88,948059.000000,0.587000,0.410000,0.003000,1.416000,1.764000,1.923000,0.507000
1899.38818359,21225.97070312,46.96715164,97,238,88,948059.000000,0.587000,0.410000,0.003000,1.416000,1.764000,1.923000,0.507000
1899.38024902,21225.87304688,46.87178421,97,238,88,948059.000000,0.587000,0.410000,0.003000,1.416000,1.764000,1.923000,0.507000
1899.33520508,21226.25585938,46.84274292,97,238,88,948059.000000,0.587000,0.410000,0.003000,1.416000,1.764000,1.923000,0.507000
1899.35583496,21225.67578125,46.71253586,97,238,88,948059.000000,0.587000,0.410000,0.003000,1.416000,1.764000,1.923000,0.507000
1899.33007812,21226.49414062,46.86560822,97,238,88,948059.000000,0.587000,0.410000,0.003000,1.416000,1.764000,1.923000,0.507000
1899.36083984,21225.62890625,46.56054688,97,238,88,948059.000000,0.587000,0.410000,0.003000,1.416000,1.764000,1.923000,0.507000
1899.34094238,21226.44726562,46.87192535,97,238,88,948059.000000,0.587000,0.410000,0.003000,1.416000,1.764000,1.923000,0.507000
1899.37902832,21226.01757812,46.87020111,97,238,88,948059.000000,0.587000,0.410000,0.003000,1.416000,1.764000,1.923000,0.507000
1899.37597656,21225.72656250,46.84756470,97,238,88,948059.000000,0.587000,0.410000,0.003000,1.416000,1.764000,1.923000,0.507000
1899.31604004,21226.39843750,46.54175186,97,238,88,948059.000000,0.587000,0.410000,0.003000,1.416000,1.764000,1.923000,0.507000
1899.35485840,21226.01562500,46.84479141,97,238,88,948059.000000,0.587000,0.410000,0.003000,1.416000,1.764000,1.923000,0.507000
1899.37500000,21226.20898438,47.08422089,97,238,88,948059.000000,0.587000,0.410000,0.003000,1.416000,1.764000,1.923000,0.507000
1899.32336426,21226.20703125,46.72852325,97,238,88,948059.000000,0.587000,0.410000,0.003000,1.416000,1.764000,1.923000,0.507000
1899.36547852,21226.35351562,46.92034912,97,238,88,948059.000000,0.587000,0.410000,0.003000,1.416000,1.764000,1.923000,0.507000
1899.39099121,21225.92187500,47.08624268,97,238,88,948059.000000,0.587000,0.410000,0.003000,1.416000,1.764000,1.923000,0.507000
1899.34899902,21225.82226562,46.59984589,97,238,88,948059.000000,0.587000,0.410000,0.003000,1.416000,1.764000,1.923000,0.507000
1899.33691406,21225.91796875,46.73490524,97,238,88,948059.000000,0.587000,0.410000,0.003000,1.416000,1.764000,1.923000,0.507000
1899.31420898,21226.39843750,46.66991425,97,238,88,948059.000000,0.587000,0.410000,0.003000,1.416000,1.764000,1.923000,0.507000
1899.33264160,21226.44726562,46.84838486,97,238,88,948059.000000,0.587000,0.410000,0.003000,1.416000,1.764000,1.923000,0.507000
1899.34399414,21226.06445312,46.84389114,97,238,88,948059.000000,0.587000,0.410000,0.003000,1.416000,1.764000,1.923000,0.507000
1899.41833496,21225.53515625,47.12846756,97,238,88,948059.000000,0.587000,0.410000,0.003000,1.416000,1.764000,1.923000,0.507000
1899.40881348,21225.67968750,47.10998535,97,238,88,948059.000000,0.587000,0.410000,0.003000,1.416000,1.764000,1.923000,0.507000
1899.35766602,21226.25585938,46.87208176,97,238,88,948059.000000,0.587000,0.410000,0.003000,1.416000,1.764000,1.923000,0.507000
1899.40722656,21225.72656250,47.12935257,97,238,88,948059.000000,0.587000,0.410000,0.003000,1.416000,1.764000,1.923000,0.507000
1899.38830566,21225.63085938,46.87429810,97,238,88,948059.000000,0.587000,0.410000,0.003000,1.416000,1.764000,1.923000,0.507000
1899.41320801,21225.63085938,47.13002014,97,238,88,948059.000000,0.587000,0.410000,0.003000,1.416000,1.764000,1.923000,0.507000
1899.35729980,21226.11328125,46.86999893,97,238,88,948059.000000,0.587000,0.410000,0.003000,1.416000,1.764000,1.923000,0.507000
1899.35473633,21225.82226562,46.83942795,97,238,88,948059.000000,0.587000,0.410000,0.003000,1.416000,1.764000,1.923000,0.507000
1899.36364746,21226.16015625,46.87026978,97,238,88,948059.000000,0.587000,0.410000,0.003000,1.416000,1.764000,1.923000,0.507000
1899.36657715,21226.35156250,47.10307312,97,238,88,948059.000000,0.587000,0.410000,0.003000,1.416000,1.764000,1.923000,0.507000
1899.34667969,21225.91796875,46.83925247,97,238,88,948059.000000,0.587000,0.410000,0.003000,1.416000,1.764000,1.923000,0.507000
